# .PCD v0.7 - Point Cloud Data file format
VERSION 0.7
FIELDS x y z rgb label
SIZE 4 4 4 4 4
TYPE F F F F U
COUNT 1 1 1 1 1
WIDTH 746
HEIGHT 1
VIEWPOINT 0 0 0 1 0 0 0
POINTS 746
DATA ascii
0.956390 -2.891024 -11.165006 1.880790849211783e-38 1700951363
0.980681 -2.828219 -11.448577 1.880790849211783e-38 1700951363
1.018386 -3.646747 -11.888746 1.880790849211783e-38 1700951363
1.027507 -2.195434 -11.995231 1.880790849211783e-38 1700951363
1.034130 -2.100603 -12.072548 1.880790849211783e-38 1700951363
0.993401 -2.736419 -11.597071 1.880790849211783e-38 1700951363
0.969600 -2.601190 -11.319223 1.880790849211783e-38 1700951363
1.029092 -1.991779 -12.013740 1.880790849211783e-38 1700951363
1.052986 -1.929578 -12.292677 1.880790849211783e-38 1700951363
0.991637 -2.548679 -11.576475 1.880790849211783e-38 1700951363
1.006277 -2.499543 -11.747390 1.880790849211783e-38 1700951363
1.004528 -1.829368 -12.158041 1.880790849211783e-38 1700951363
1.007717 -1.755122 -12.196636 1.880790849211783e-38 1700951363
1.001974 -1.677959 -12.127124 1.880790849211783e-38 1700951363
1.038464 -1.666883 -12.568774 1.880790849211783e-38 1700951363
0.962231 -2.345984 -11.646114 1.880790849211783e-38 1700951363
0.968333 -2.238261 -11.719967 1.880790849211783e-38 1700951363
0.945545 -3.382729 -11.444160 1.880790849211783e-38 1700951363
0.939539 -3.274940 -11.371461 1.880790849211783e-38 1700951363
0.930207 -3.131567 -11.258512 1.880790849211783e-38 1700951363
0.898685 -2.927284 -10.876999 1.880790849211783e-38 1700951363
0.937102 -2.936099 -11.341963 1.880790849211783e-38 1700951363
0.939436 -2.808148 -11.370214 1.880790849211783e-38 1700951363
0.965771 -3.584555 -11.688960 1.880790849211783e-38 1700951363
0.993392 -2.200005 -12.023256 1.880790849211783e-38 1700951363
0.991043 -2.086551 -11.994829 1.880790849211783e-38 1700951363
0.926630 -2.645648 -11.215225 1.880790849211783e-38 1700951363
0.921496 -2.562361 -11.153085 1.880790849211783e-38 1700951363
0.966956 -1.939818 -11.703295 1.880790849211783e-38 1700951363
1.001017 -1.901292 -12.115548 1.880790849211783e-38 1700951363
0.948606 -2.527063 -11.481206 1.880790849211783e-38 1700951363
0.957713 -2.465733 -11.591430 1.880790849211783e-38 1700951363
0.993901 -1.563612 -12.488284 1.880790849211783e-38 1700951363
0.964863 -1.823713 -12.123421 1.880790849211783e-38 1700951363
0.970231 -1.753863 -12.190867 1.880790849211783e-38 1700951363
0.991002 -1.722469 -12.451857 1.880790849211783e-38 1700951363
0.976588 -1.626960 -12.270747 1.880790849211783e-38 1700951363
0.936969 -2.370951 -11.772940 1.880790849211783e-38 1700951363
0.942101 -2.260139 -11.837416 1.880790849211783e-38 1700951363
0.907524 -3.369727 -11.402964 1.880790849211783e-38 1700951363
0.888548 -3.214559 -11.164534 1.880790849211783e-38 1700951363
0.889274 -3.107203 -11.173654 1.880790849211783e-38 1700951363
0.864349 -2.922121 -10.860470 1.880790849211783e-38 1700951363
0.881713 -2.867235 -11.078653 1.880790849211783e-38 1700951363
0.901640 -2.797291 -11.329025 1.880790849211783e-38 1700951363
0.944371 -3.637939 -11.865944 1.880790849211783e-38 1700951363
0.938590 -2.157400 -11.793301 1.880790849211783e-38 1700951363
0.956927 -2.091062 -12.023704 1.880790849211783e-38 1700951363
0.887257 -2.629221 -11.148314 1.880790849211783e-38 1700951363
0.894985 -2.582940 -11.245409 1.880790849211783e-38 1700951363
0.938905 -1.954915 -11.797267 1.880790849211783e-38 1700951363
0.931506 -1.836304 -11.704292 1.880790849211783e-38 1700951363
0.912289 -2.522402 -11.462829 1.880790849211783e-38 1700951363
0.912446 -2.438200 -11.464805 1.880790849211783e-38 1700951363
0.957564 -1.565790 -12.508628 1.880790849211783e-38 1700951363
0.924873 -1.816990 -12.081575 1.880790849211783e-38 1700951363
0.930401 -1.748117 -12.153790 1.880790849211783e-38 1700951363
0.923540 -1.668446 -12.064166 1.880790849211783e-38 1700951363
0.932832 -1.615284 -12.185555 1.880790849211783e-38 1700951363
0.871302 -2.291637 -11.381783 1.880790849211783e-38 1700951363
0.897620 -2.238259 -11.725582 1.880790849211783e-38 1700951363
0.879154 -3.392982 -11.484360 1.880790849211783e-38 1700951363
0.842525 -3.168133 -11.005878 1.880790849211783e-38 1700951363
0.842758 -3.060670 -11.008910 1.880790849211783e-38 1700951363
0.837097 -2.941473 -10.934972 1.880790849211783e-38 1700951363
0.832830 -2.814961 -10.879234 1.880790849211783e-38 1700951363
0.867134 -2.796217 -11.327343 1.880790849211783e-38 1700951363
0.905529 -3.625724 -11.828887 1.880790849211783e-38 1700951363
0.885560 -2.115693 -11.568037 1.880790849211783e-38 1700951363
0.895179 -2.033190 -11.693689 1.880790849211783e-38 1700951363
0.866930 -2.670185 -11.324674 1.880790849211783e-38 1700951363
0.866810 -2.600175 -11.323112 1.880790849211783e-38 1700951363
0.915713 -1.981735 -11.961930 1.880790849211783e-38 1700951363
0.913679 -1.872116 -11.935360 1.880790849211783e-38 1700951363
0.861229 -2.475029 -11.250199 1.880790849211783e-38 1700951363
0.878774 -2.440729 -11.479397 1.880790849211783e-38 1700951363
0.912936 -1.554043 -12.417592 1.880790849211783e-38 1700951363
0.916088 -1.495558 -12.460458 1.880790849211783e-38 1700951363
0.890735 -1.821699 -12.115623 1.880790849211783e-38 1700951363
0.892305 -1.745302 -12.136968 1.880790849211783e-38 1700951363
0.902767 -1.697811 -12.279273 1.880790849211783e-38 1700951363
0.909220 -1.638971 -12.367045 1.880790849211783e-38 1700951363
0.833659 -2.282562 -11.339280 1.880790849211783e-38 1700951363
0.853185 -2.214714 -11.604862 1.880790849211783e-38 1700951363
0.849923 -3.414704 -11.560500 1.880790849211783e-38 1700951363
0.823526 -3.223701 -11.201454 1.880790849211783e-38 1700951363
0.812523 -3.071895 -11.051786 1.880790849211783e-38 1700951363
0.810918 -2.966354 -11.029961 1.880790849211783e-38 1700951363
0.816829 -2.874113 -11.110358 1.880790849211783e-38 1700951363
0.822638 -2.761534 -11.189375 1.880790849211783e-38 1700951363
0.875580 -3.649604 -11.909489 1.880790849211783e-38 1700951363
0.872119 -2.169039 -11.862400 1.880790849211783e-38 1700951363
0.873717 -2.065836 -11.884143 1.880790849211783e-38 1700951363
0.828341 -2.655973 -11.266949 1.880790849211783e-38 1700951363
0.825355 -2.577369 -11.226336 1.880790849211783e-38 1700951363
0.859021 -1.935294 -11.684253 1.880790849211783e-38 1700951363
0.879468 -1.875928 -11.962369 1.880790849211783e-38 1700951363
0.838860 -2.509624 -11.410028 1.880790849211783e-38 1700951363
0.825420 -2.386571 -11.227219 1.880790849211783e-38 1700951363
0.860254 -1.527014 -12.204268 1.880790849211783e-38 1700951363
0.876834 -1.492717 -12.439486 1.880790849211783e-38 1700951363
0.850439 -1.813697 -12.065027 1.880790849211783e-38 1700951363
0.852187 -1.738145 -12.089821 1.880790849211783e-38 1700951363
0.851188 -1.669294 -12.075651 1.880790849211783e-38 1700951363
0.863280 -1.622736 -12.247199 1.880790849211783e-38 1700951363
0.812159 -2.318832 -11.521961 1.880790849211783e-38 1700951363
0.822181 -2.225544 -11.664143 1.880790849211783e-38 1700951363
0.785928 -3.292686 -11.149828 1.880790849211783e-38 1700951363
0.788751 -3.219668 -11.189870 1.880790849211783e-38 1700951363
0.786529 -3.100841 -11.158348 1.880790849211783e-38 1700951363
0.773214 -2.949439 -10.969446 1.880790849211783e-38 1700951363
0.774329 -2.841136 -10.985264 1.880790849211783e-38 1700951363
0.787221 -2.755701 -11.168168 1.880790849211783e-38 1700951363
0.837732 -3.641236 -11.884765 1.880790849211783e-38 1700951363
0.826997 -2.144813 -11.732459 1.880790849211783e-38 1700951363
0.833434 -2.054897 -11.823775 1.880790849211783e-38 1700951363
0.787176 -2.631964 -11.167521 1.880790849211783e-38 1700951363
0.786988 -2.562697 -11.164855 1.880790849211783e-38 1700951363
0.810861 -1.904949 -11.503545 1.880790849211783e-38 1700951363
0.823252 -1.831145 -11.679334 1.880790849211783e-38 1700951363
0.803343 -2.506191 -11.396894 1.880790849211783e-38 1700951363
0.810493 -2.443668 -11.498318 1.880790849211783e-38 1700951363
0.820160 -1.520928 -12.158154 1.880790849211783e-38 1700951363
0.833164 -1.481783 -12.350935 1.880790849211783e-38 1700951363
0.819029 -1.824796 -12.141387 1.880790849211783e-38 1700951363
0.802105 -1.709135 -11.890512 1.880790849211783e-38 1700951363
0.804466 -1.648196 -11.925508 1.880790849211783e-38 1700951363
0.818834 -1.607998 -12.138494 1.880790849211783e-38 1700951363
0.773167 -2.306189 -11.461525 1.880790849211783e-38 1700951363
0.778167 -2.200568 -11.535644 1.880790849211783e-38 1700951363
0.777432 -3.402696 -11.524747 1.880790849211783e-38 1700951363
0.759160 -3.237412 -11.253880 1.880790849211783e-38 1700951363
0.743703 -3.063078 -11.024754 1.880790849211783e-38 1700951363
0.750067 -2.989052 -11.119084 1.880790849211783e-38 1700951363
0.726126 -2.783380 -10.764193 1.880790849211783e-38 1700951363
0.755592 -2.763227 -11.200996 1.880790849211783e-38 1700951363
0.786550 -3.705381 -11.659912 1.880790849211783e-38 1700951363
0.799164 -3.628886 -11.846918 1.880790849211783e-38 1700951363
0.779062 -2.110820 -11.548914 1.880790849211783e-38 1700951363
0.786168 -2.025014 -11.654259 1.880790849211783e-38 1700951363
0.753633 -2.632459 -11.171948 1.880790849211783e-38 1700951363
0.755294 -2.569443 -11.196574 1.880790849211783e-38 1700951363
0.776551 -1.905903 -11.511698 1.880790849211783e-38 1700951363
0.788406 -1.832033 -11.687433 1.880790849211783e-38 1700951363
0.771861 -2.515623 -11.442167 1.880790849211783e-38 1700951363
0.777074 -2.447650 -11.519450 1.880790849211783e-38 1700951363
0.782232 -1.518491 -12.141089 1.880790849211783e-38 1700951363
0.793709 -1.477684 -12.319220 1.880790849211783e-38 1700951363
0.789222 -1.396564 -12.249583 1.880790849211783e-38 1700951363
0.776853 -1.811845 -12.057609 1.880790849211783e-38 1700951363
0.777448 -1.734134 -12.066833 1.880790849211783e-38 1700951363
0.779889 -1.672633 -12.104727 1.880790849211783e-38 1700951363
0.766668 -1.576027 -11.899515 1.880790849211783e-38 1700951363
0.728521 -2.274734 -11.307444 1.880790849211783e-38 1700951363
0.755494 -2.236452 -11.726086 1.880790849211783e-38 1700951363
0.742208 -3.400580 -11.519869 1.880790849211783e-38 1700951363
0.713497 -3.185103 -11.074246 1.880790849211783e-38 1700951363
0.724645 -3.124282 -11.247275 1.880790849211783e-38 1700951363
0.714803 -2.981857 -11.094527 1.880790849211783e-38 1700951363
0.686092 -2.753018 -10.648888 1.880790849211783e-38 1700951363
0.706266 -2.703733 -10.962011 1.880790849211783e-38 1700951363
0.749527 -3.696243 -11.633472 1.880790849211783e-38 1700951363
0.751403 -3.571714 -11.662593 1.880790849211783e-38 1700951363
0.750042 -2.127313 -11.641466 1.880790849211783e-38 1700951363
0.753780 -2.032469 -11.699487 1.880790849211783e-38 1700951363
0.710861 -2.599279 -11.033330 1.880790849211783e-38 1700951363
0.711979 -2.535461 -11.050690 1.880790849211783e-38 1700951363
0.749663 -1.926031 -11.635588 1.880790849211783e-38 1700951363
0.757191 -1.841856 -11.752433 1.880790849211783e-38 1700951363
0.712785 -2.431820 -11.063194 1.880790849211783e-38 1700951363
0.715679 -2.359782 -11.108122 1.880790849211783e-38 1700951363
0.741940 -1.511010 -12.083564 1.880790849211783e-38 1700951363
0.752456 -1.469682 -12.254836 1.880790849211783e-38 1700951363
0.737658 -1.369425 -12.013816 1.880790849211783e-38 1700951363
0.724459 -1.772625 -11.798848 1.880790849211783e-38 1700951363
0.732707 -1.714603 -11.933193 1.880790849211783e-38 1700951363
0.745048 -1.676385 -12.134181 1.880790849211783e-38 1700951363
0.742062 -1.600362 -12.085547 1.880790849211783e-38 1700951363
0.684082 -2.240876 -11.141253 1.880790849211783e-38 1700951363
0.702088 -2.180428 -11.434509 1.880790849211783e-38 1700951363
0.697387 -3.352146 -11.357950 1.880790849211783e-38 1700951363
0.691637 -3.239153 -11.264310 1.880790849211783e-38 1700951363
0.686462 -3.105008 -11.180012 1.880790849211783e-38 1700951363
0.672375 -2.942613 -10.950591 1.880790849211783e-38 1700951363
0.669040 -2.816439 -10.896276 1.880790849211783e-38 1700951363
0.676518 -2.717042 -11.018064 1.880790849211783e-38 1700951363
0.717846 -3.713868 -11.691161 1.880790849211783e-38 1700951363
0.724939 -3.615152 -11.806670 1.880790849211783e-38 1700951363
0.716235 -2.131193 -11.664911 1.880790849211783e-38 1700951363
0.708092 -2.003044 -11.532299 1.880790849211783e-38 1700951363
0.672111 -2.578287 -10.946298 1.880790849211783e-38 1700951363
0.672146 -2.511164 -10.946872 1.880790849211783e-38 1700951363
0.711436 -1.917584 -11.586755 1.880790849211783e-38 1700951363
0.711962 -1.816888 -11.595319 1.880790849211783e-38 1700951363
0.695083 -2.487891 -11.320430 1.880790849211783e-38 1700951363
0.690065 -2.387068 -11.238698 1.880790849211783e-38 1700951363
0.699827 -1.498875 -11.988690 1.880790849211783e-38 1700951363
0.714610 -1.467869 -12.241925 1.880790849211783e-38 1700951363
0.711622 -1.389341 -12.190742 1.880790849211783e-38 1700951363
0.688107 -1.770663 -11.787913 1.880790849211783e-38 1700951363
0.677189 -1.666554 -11.600876 1.880790849211783e-38 1700951363
0.703119 -1.663774 -12.045073 1.880790849211783e-38 1700951363
0.693672 -1.573288 -11.883237 1.880790849211783e-38 1700951363
0.654586 -2.255031 -11.213656 1.880790849211783e-38 1700951363
0.662079 -2.162402 -11.342026 1.880790849211783e-38 1700951363
0.679633 -3.435577 -11.642735 1.880790849211783e-38 1700951363
0.660475 -3.253014 -11.314555 1.880790849211783e-38 1700951363
0.653511 -3.108677 -11.195245 1.880790849211783e-38 1700951363
0.647107 -2.978337 -11.085535 1.880790849211783e-38 1700951363
0.630294 -2.790409 -10.797521 1.880790849211783e-38 1700951363
0.636919 -2.690157 -10.911013 1.880790849211783e-38 1700951363
0.685867 -3.731738 -11.749539 1.880790849211783e-38 1700951363
0.697678 -3.658951 -11.951870 1.880790849211783e-38 1700951363
0.656183 -2.053378 -11.241027 1.880790849211783e-38 1700951363
0.665408 -1.979544 -11.399059 1.880790849211783e-38 1700951363
0.651937 -2.630100 -11.168289 1.880790849211783e-38 1700951363
0.642805 -2.525614 -11.011849 1.880790849211783e-38 1700951363
0.677782 -1.921255 -11.611032 1.880790849211783e-38 1700951363
0.685144 -1.838780 -11.737153 1.880790849211783e-38 1700951363
0.652753 -2.457082 -11.182260 1.880790849211783e-38 1700951363
0.665469 -2.420910 -11.400092 1.880790849211783e-38 1700951363
0.663370 -1.498205 -11.985385 1.880790849211783e-38 1700951363
0.658336 -1.425959 -11.894441 1.880790849211783e-38 1700951363
0.665182 -1.369433 -12.018124 1.880790849211783e-38 1700951363
0.674670 -1.304120 -12.189561 1.880790849211783e-38 1700951363
0.651976 -1.769099 -11.779524 1.880790849211783e-38 1700951363
0.656637 -1.704024 -11.863742 1.880790849211783e-38 1700951363
0.663911 -1.656596 -11.995169 1.880790849211783e-38 1700951363
0.657933 -1.573537 -11.887150 1.880790849211783e-38 1700951363
0.608340 -2.209903 -10.991132 1.880790849211783e-38 1700951363
0.633403 -2.181461 -11.443957 1.880790849211783e-38 1700951363
0.624089 -3.326696 -11.275689 1.880790849211783e-38 1700951363
0.628435 -3.263856 -11.354212 1.880790849211783e-38 1700951363
0.604765 -3.033544 -10.926544 1.880790849211783e-38 1700951363
0.609439 -2.957805 -11.011003 1.880790849211783e-38 1700951363
0.597246 -2.788169 -10.790701 1.880790849211783e-38 1700951363
0.612598 -2.728412 -11.068068 1.880790849211783e-38 1700951363
0.647761 -3.716440 -11.703381 1.880790849211783e-38 1700951363
0.645813 -3.571489 -11.668178 1.880790849211783e-38 1700951363
0.628467 -2.073801 -11.354777 1.880790849211783e-38 1700951363
0.640147 -2.008157 -11.565806 1.880790849211783e-38 1700951363
0.603651 -2.567991 -10.906425 1.880790849211783e-38 1700951363
0.609393 -2.524794 -11.010160 1.880790849211783e-38 1700951363
0.630013 -1.883153 -11.382720 1.880790849211783e-38 1700951363
0.635785 -1.799282 -11.487000 1.880790849211783e-38 1700951363
0.614343 -2.438498 -11.099590 1.880790849211783e-38 1700951363
0.615821 -2.362364 -11.126303 1.880790849211783e-38 1700951363
0.624417 -1.491514 -11.933791 1.880790849211783e-38 1700951363
0.630238 -1.443779 -12.045036 1.880790849211783e-38 1700951363
0.605232 -1.317828 -11.567116 1.880790849211783e-38 1700951363
0.634807 -1.297788 -12.132345 1.880790849211783e-38 1700951363
0.618737 -1.775674 -11.825221 1.880790849211783e-38 1700951363
0.619695 -1.700845 -11.843528 1.880790849211783e-38 1700951363
0.634641 -1.242828 -12.129177 1.880790849211783e-38 1700951363
0.621338 -1.639726 -11.874941 1.880790849211783e-38 1700951363
0.614912 -1.555410 -11.752121 1.880790849211783e-38 1700951363
0.571476 -2.195643 -10.921982 1.880790849211783e-38 1700951363
0.590871 -2.152270 -11.292656 1.880790849211783e-38 1700951363
0.599828 -3.381658 -11.463839 1.880790849211783e-38 1700951363
0.586486 -3.221546 -11.208845 1.880790849211783e-38 1700951363
0.580544 -3.079893 -11.095289 1.880790849211783e-38 1700951363
0.584157 -2.998505 -11.164330 1.880790849211783e-38 1700951363
0.573707 -2.832644 -10.964609 1.880790849211783e-38 1700951363
0.572780 -2.698105 -10.946899 1.880790849211783e-38 1700951363
0.617292 -3.745754 -11.797608 1.880790849211783e-38 1700951363
0.614376 -3.593464 -11.741878 1.880790849211783e-38 1700951363
0.591025 -2.062658 -11.295601 1.880790849211783e-38 1700951363
0.597655 -1.982920 -11.422312 1.880790849211783e-38 1700951363
0.558662 -2.513582 -10.677080 1.880790849211783e-38 1700951363
0.575060 -2.519870 -10.990476 1.880790849211783e-38 1700951363
0.601645 -1.902009 -11.498563 1.880790849211783e-38 1700951363
0.608321 -1.820782 -11.626151 1.880790849211783e-38 1700951363
0.579259 -2.431761 -11.070719 1.880790849211783e-38 1700951363
0.587647 -2.384214 -11.231039 1.880790849211783e-38 1700951363
0.589099 -1.493220 -11.949276 1.880790849211783e-38 1700951363
0.598226 -1.454269 -12.134417 1.880790849211783e-38 1700951363
0.587643 -1.357795 -11.919746 1.880790849211783e-38 1700951363
0.601983 -1.305961 -12.210629 1.880790849211783e-38 1700951363
0.574594 -1.749854 -11.655062 1.880790849211783e-38 1700951363
0.584185 -1.701458 -11.849615 1.880790849211783e-38 1700951363
0.597423 -1.241506 -12.118137 1.880790849211783e-38 1700951363
0.575337 -1.611199 -11.670139 1.880790849211783e-38 1700951363
0.577080 -1.549001 -11.705490 1.880790849211783e-38 1700951363
0.539852 -2.201010 -10.950354 1.880790849211783e-38 1700951363
0.555467 -2.147069 -11.267093 1.880790849211783e-38 1700951363
0.564585 -3.377660 -11.452041 1.880790849211783e-38 1700951363
0.551885 -3.216914 -11.194445 1.880790849211783e-38 1700951363
0.541444 -3.048156 -10.982641 1.880790849211783e-38 1700951363
0.553709 -3.016068 -11.231442 1.880790849211783e-38 1700951363
0.539232 -2.825282 -10.937787 1.880790849211783e-38 1700951363
0.530207 -2.650330 -10.754713 1.880790849211783e-38 1700951363
0.569926 -3.669874 -11.560386 1.880790849211783e-38 1700951363
0.575824 -3.573986 -11.680022 1.880790849211783e-38 1700951363
0.556435 -2.060723 -11.286732 1.880790849211783e-38 1700951363
0.567870 -1.999341 -11.518669 1.880790849211783e-38 1700951363
0.537561 -2.566584 -10.903892 1.880790849211783e-38 1700951363
0.529929 -2.464147 -10.749084 1.880790849211783e-38 1700951363
0.549180 -1.842343 -11.139560 1.880790849211783e-38 1700951363
0.574110 -1.823493 -11.645242 1.880790849211783e-38 1700951363
0.544659 -2.426370 -11.047872 1.880790849211783e-38 1700951363
0.547826 -2.358603 -11.112096 1.880790849211783e-38 1700951363
0.544787 -1.470893 -11.772302 1.880790849211783e-38 1700951363
0.543183 -1.406513 -11.737633 1.880790849211783e-38 1700951363
0.551566 -1.357489 -11.918779 1.880790849211783e-38 1700951363
0.552356 -1.276389 -11.935852 1.880790849211783e-38 1700951363
0.537502 -1.743568 -11.614863 1.880790849211783e-38 1700951363
0.538472 -1.670522 -11.635839 1.880790849211783e-38 1700951363
0.560569 -1.240834 -12.113325 1.880790849211783e-38 1700951363
0.543114 -1.620080 -11.736152 1.880790849211783e-38 1700951363
0.540528 -1.545441 -11.680270 1.880790849211783e-38 1700951363
0.510523 -2.217079 -11.031891 1.880790849211783e-38 1700951363
0.526125 -2.166181 -11.369022 1.880790849211783e-38 1700951363
0.528579 -3.368331 -11.422056 1.880790849211783e-38 1700951363
0.515934 -3.203339 -11.148812 1.880790849211783e-38 1700951363
0.513370 -3.078456 -11.093410 1.880790849211783e-38 1700951363
0.513533 -2.979515 -11.096924 1.880790849211783e-38 1700951363
0.510115 -2.846901 -11.023071 1.880790849211783e-38 1700951363
0.495404 -2.637741 -10.705173 1.880790849211783e-38 1700951363
0.542824 -3.723140 -11.729867 1.880790849211783e-38 1700951363
0.548216 -3.624372 -11.846393 1.880790849211783e-38 1700951363
0.524826 -2.070326 -11.340965 1.880790849211783e-38 1700951363
0.525714 -1.971543 -11.360151 1.880790849211783e-38 1700951363
0.495153 -2.518169 -10.699748 1.880790849211783e-38 1700951363
0.500019 -2.476588 -10.804910 1.880790849211783e-38 1700951363
0.519351 -1.855816 -11.222638 1.880790849211783e-38 1700951363
0.538594 -1.822170 -11.638475 1.880790849211783e-38 1700951363
0.502805 -2.385889 -10.865114 1.880790849211783e-38 1700951363
0.504703 -2.314549 -10.906119 1.880790849211783e-38 1700951363
0.508073 -1.467407 -11.745992 1.880790849211783e-38 1700951363
0.505752 -1.400895 -11.692324 1.880790849211783e-38 1700951363
0.508582 -1.338969 -11.757757 1.880790849211783e-38 1700951363
0.517194 -1.278463 -11.956861 1.880790849211783e-38 1700951363
0.505177 -1.752965 -11.679041 1.880790849211783e-38 1700951363
0.505421 -1.677307 -11.684678 1.880790849211783e-38 1700951363
0.528895 -1.252347 -12.227368 1.880790849211783e-38 1700951363
0.527764 -1.169783 -12.201221 1.880790849211783e-38 1700951363
0.506089 -1.614889 -11.700126 1.880790849211783e-38 1700951363
0.507014 -1.550687 -11.721501 1.880790849211783e-38 1700951363
0.477157 -2.216651 -11.031255 1.880790849211783e-38 1700951363
0.472346 -2.080353 -10.920037 1.880790849211783e-38 1700951363
0.483789 -3.297851 -11.184568 1.880790849211783e-38 1700951363
0.494117 -3.281778 -11.423351 1.880790849211783e-38 1700951363
0.495803 -3.180403 -11.462329 1.880790849211783e-38 1700951363
0.480893 -2.984671 -11.117625 1.880790849211783e-38 1700951363
0.472732 -2.822214 -10.928960 1.880790849211783e-38 1700951363
0.476633 -2.714737 -11.019143 1.880790849211783e-38 1700951363
0.510021 -3.742049 -11.791034 1.880790849211783e-38 1700951363
0.516589 -3.653393 -11.942862 1.880790849211783e-38 1700951363
0.487109 -2.055511 -11.261331 1.880790849211783e-38 1700951363
0.486968 -1.953563 -11.258069 1.880790849211783e-38 1700951363
0.465697 -2.533494 -10.766316 1.880790849211783e-38 1700951363
0.462511 -2.450527 -10.692657 1.880790849211783e-38 1700951363
0.490710 -1.875726 -11.344572 1.880790849211783e-38 1700951363
0.493103 -1.784578 -11.399905 1.880790849211783e-38 1700951363
0.467468 -2.372863 -10.807254 1.880790849211783e-38 1700951363
0.469346 -2.302474 -10.850686 1.880790849211783e-38 1700951363
0.477155 -1.481400 -11.859493 1.880790849211783e-38 1700951363
0.472834 -1.407880 -11.752103 1.880790849211783e-38 1700951363
0.465220 -1.316608 -11.562861 1.880790849211783e-38 1700951363
0.478444 -1.271318 -11.891535 1.880790849211783e-38 1700951363
0.464199 -1.731499 -11.537477 1.880790849211783e-38 1700951363
0.458889 -1.637026 -11.405506 1.880790849211783e-38 1700951363
0.480341 -1.222625 -11.938672 1.880790849211783e-38 1700951363
0.488667 -1.164306 -12.145629 1.880790849211783e-38 1700951363
0.460188 -1.578480 -11.437779 1.880790849211783e-38 1700951363
0.473234 -1.555855 -11.762049 1.880790849211783e-38 1700951363
0.437166 -2.183086 -10.865580 1.880790849211783e-38 1700951363
0.453913 -2.149007 -11.281830 1.880790849211783e-38 1700951363
0.465504 -3.411043 -11.569912 1.880790849211783e-38 1700951363
0.447563 -3.195379 -11.124012 1.880790849211783e-38 1700951363
0.451680 -3.114531 -11.226338 1.880790849211783e-38 1700951363
0.433982 -2.895401 -10.786460 1.880790849211783e-38 1700951363
0.485917 -3.963356 -12.077264 1.880790849211783e-38 1700951363
0.437782 -2.809451 -10.880905 1.880790849211783e-38 1700951363
0.439380 -2.690126 -10.920625 1.880790849211783e-38 1700951363
0.483045 -3.809754 -12.005881 1.880790849211783e-38 1700951363
0.476295 -3.620899 -11.838133 1.880790849211783e-38 1700951363
0.443376 -2.011198 -11.019946 1.880790849211783e-38 1700951363
0.455764 -1.965419 -11.327824 1.880790849211783e-38 1700951363
0.430932 -2.520076 -10.710645 1.880790849211783e-38 1700951363
0.438773 -2.499001 -10.905540 1.880790849211783e-38 1700951363
0.451524 -1.855301 -11.222448 1.880790849211783e-38 1700951363
0.459425 -1.787313 -11.418816 1.880790849211783e-38 1700951363
0.435296 -2.375168 -10.819117 1.880790849211783e-38 1700951363
0.442979 -2.336003 -11.010080 1.880790849211783e-38 1700951363
0.431976 -1.449824 -11.608059 1.880790849211783e-38 1700951363
0.438337 -1.410934 -11.778975 1.880790849211783e-38 1700951363
0.433715 -1.326921 -11.654792 1.880790849211783e-38 1700951363
0.452852 -1.300833 -12.169030 1.880790849211783e-38 1700951363
0.427800 -1.725049 -11.495841 1.880790849211783e-38 1700951363
0.435964 -1.681284 -11.715225 1.880790849211783e-38 1700951363
0.440432 -1.211896 -11.835287 1.880790849211783e-38 1700951363
0.444051 -1.143744 -11.932523 1.880790849211783e-38 1700951363
0.425599 -1.578145 -11.436688 1.880790849211783e-38 1700951363
0.432372 -1.536713 -11.618699 1.880790849211783e-38 1700951363
0.405215 -2.187522 -10.888932 1.880790849211783e-38 1700951363
0.414731 -2.122626 -11.144634 1.880790849211783e-38 1700951363
0.421620 -3.339852 -11.329762 1.880790849211783e-38 1700951363
0.419504 -3.237772 -11.272907 1.880790849211783e-38 1700951363
0.421238 -3.140009 -11.319496 1.880790849211783e-38 1700951363
0.416003 -3.000373 -11.178826 1.880790849211783e-38 1700951363
0.443211 -3.907996 -11.909958 1.880790849211783e-38 1700951363
0.410559 -2.848266 -11.032523 1.880790849211783e-38 1700951363
0.413853 -2.739181 -11.121061 1.880790849211783e-38 1700951363
0.437616 -3.731175 -11.759624 1.880790849211783e-38 1700951363
0.440487 -3.620057 -11.836761 1.880790849211783e-38 1700951363
0.408201 -2.001698 -10.969170 1.880790849211783e-38 1700951363
0.410275 -1.912636 -11.024893 1.880790849211783e-38 1700951363
0.392037 -2.478417 -10.534816 1.880790849211783e-38 1700951363
0.404653 -2.491442 -10.873825 1.880790849211783e-38 1700951363
0.417855 -1.856098 -11.228585 1.880790849211783e-38 1700951363
0.416930 -1.753443 -11.203735 1.880790849211783e-38 1700951363
0.403770 -2.381695 -10.850114 1.880790849211783e-38 1700951363
0.404478 -2.305827 -10.869125 1.880790849211783e-38 1700951363
0.398755 -1.456364 -11.661677 1.880790849211783e-38 1700951363
0.397472 -1.392241 -11.624166 1.880790849211783e-38 1700951363
0.402069 -1.338596 -11.758606 1.880790849211783e-38 1700951363
0.411379 -1.285926 -12.030871 1.880790849211783e-38 1700951363
0.383233 -1.681633 -11.207719 1.880790849211783e-38 1700951363
0.394628 -1.656098 -11.540971 1.880790849211783e-38 1700951363
0.400628 -1.199598 -11.716455 1.880790849211783e-38 1700951363
0.412760 -1.156916 -12.071247 1.880790849211783e-38 1700951363
0.388860 -1.569091 -11.372297 1.880790849211783e-38 1700951363
0.395625 -1.530125 -11.570127 1.880790849211783e-38 1700951363
0.404801 -1.047438 -11.838483 1.880790849211783e-38 1700951363
0.370843 -2.178536 -10.845371 1.880790849211783e-38 1700951363
0.382880 -2.132445 -11.197397 1.880790849211783e-38 1700951363
0.393624 -3.393098 -11.511628 1.880790849211783e-38 1700951363
0.388816 -3.265596 -11.371006 1.880790849211783e-38 1700951363
0.383739 -3.112774 -11.222525 1.880790849211783e-38 1700951363
0.373769 -2.933528 -10.930952 1.880790849211783e-38 1700951363
0.412780 -3.960685 -12.071833 1.880790849211783e-38 1700951363
0.373821 -2.822135 -10.932486 1.880790849211783e-38 1700951363
0.372113 -2.680139 -10.882524 1.880790849211783e-38 1700951363
0.404739 -3.755217 -11.836673 1.880790849211783e-38 1700951363
0.408614 -3.654293 -11.949992 1.880790849211783e-38 1700951363
0.385788 -2.058645 -11.282454 1.880790849211783e-38 1700951363
0.379865 -1.927059 -11.109224 1.880790849211783e-38 1700951363
0.362525 -2.493985 -10.602134 1.880790849211783e-38 1700951363
0.358767 -2.403749 -10.492218 1.880790849211783e-38 1700951363
0.384817 -1.860106 -11.254041 1.880790849211783e-38 1700951363
0.385502 -1.764265 -11.274094 1.880790849211783e-38 1700951363
0.368363 -2.364480 -10.772848 1.880790849211783e-38 1700951363
0.367281 -2.278446 -10.741215 1.880790849211783e-38 1700951363
0.367939 -1.473818 -11.802601 1.880790849211783e-38 1700951363
0.367020 -1.409943 -11.773124 1.880790849211783e-38 1700951363
0.368004 -1.343709 -11.804685 1.880790849211783e-38 1700951363
0.372092 -1.275639 -11.935804 1.880790849211783e-38 1700951363
0.353148 -1.699531 -11.328126 1.880790849211783e-38 1700951363
0.353750 -1.628165 -11.347435 1.880790849211783e-38 1700951363
0.372085 -1.221913 -11.935577 1.880790849211783e-38 1700951363
0.369257 -1.135108 -11.844868 1.880790849211783e-38 1700951363
0.364778 -1.614312 -11.701199 1.880790849211783e-38 1700951363
0.353956 -1.501400 -11.354043 1.880790849211783e-38 1700951363
0.372246 -1.056382 -11.940746 1.880790849211783e-38 1700951363
0.335832 -2.163720 -10.772672 1.880790849211783e-38 1700951363
0.345577 -2.110883 -11.085270 1.880790849211783e-38 1700951363
0.355495 -3.360869 -11.403410 1.880790849211783e-38 1700951363
0.352121 -3.243504 -11.295193 1.880790849211783e-38 1700951363
0.351443 -3.126588 -11.273437 1.880790849211783e-38 1700951363
0.333376 -2.869630 -10.693911 1.880790849211783e-38 1700951363
0.377290 -3.970369 -12.102540 1.880790849211783e-38 1700951363
0.337220 -2.792102 -10.817208 1.880790849211783e-38 1700951363
0.338773 -2.676056 -10.867017 1.880790849211783e-38 1700951363
0.360074 -3.664002 -11.550295 1.880790849211783e-38 1700951363
0.371373 -3.642543 -11.912740 1.880790849211783e-38 1700951363
0.349199 -2.043665 -11.201462 1.880790849211783e-38 1700951363
0.346577 -1.928281 -11.117364 1.880790849211783e-38 1700951363
0.326506 -2.463491 -10.473534 1.880790849211783e-38 1700951363
0.330537 -2.428850 -10.602831 1.880790849211783e-38 1700951363
0.345675 -1.832550 -11.088414 1.880790849211783e-38 1700951363
0.354638 -1.780026 -11.375936 1.880790849211783e-38 1700951363
0.327341 -2.304432 -10.500296 1.880790849211783e-38 1700951363
0.337554 -2.296613 -10.827925 1.880790849211783e-38 1700951363
0.321845 -1.427260 -11.430782 1.880790849211783e-38 1700951363
0.324636 -1.380691 -11.529902 1.880790849211783e-38 1700951363
0.322027 -1.301768 -11.437248 1.880790849211783e-38 1700951363
0.329130 -1.249206 -11.689520 1.880790849211783e-38 1700951363
0.320540 -1.707828 -11.384446 1.880790849211783e-38 1700951363
0.321771 -1.639598 -11.428138 1.880790849211783e-38 1700951363
0.336327 -1.222782 -11.945132 1.880790849211783e-38 1700951363
0.330876 -1.126063 -11.751535 1.880790849211783e-38 1700951363
0.319970 -1.567679 -11.364202 1.880790849211783e-38 1700951363
0.321123 -1.508022 -11.405139 1.880790849211783e-38 1700951363
0.325263 -1.021914 -11.552169 1.880790849211783e-38 1700951363
0.340688 -1.015939 -12.100010 1.880790849211783e-38 1700951363
0.303199 -2.162697 -10.768545 1.880790849211783e-38 1700951363
0.308716 -2.087697 -10.964485 1.880790849211783e-38 1700951363
0.330186 -3.455932 -11.727008 1.880790849211783e-38 1700951363
0.316281 -3.225407 -11.233179 1.880790849211783e-38 1700951363
0.319602 -3.147846 -11.351102 1.880790849211783e-38 1700951363
0.310117 -2.955320 -11.014224 1.880790849211783e-38 1700951363
0.341352 -3.976922 -12.123599 1.880790849211783e-38 1700951363
0.304572 -2.791879 -10.817311 1.880790849211783e-38 1700951363
0.305972 -2.675821 -10.867035 1.880790849211783e-38 1700951363
0.332615 -3.747099 -11.813304 1.880790849211783e-38 1700951363
0.330664 -3.590631 -11.744015 1.880790849211783e-38 1700951363
0.305615 -1.980158 -10.854346 1.880790849211783e-38 1700951363
0.310921 -1.915177 -11.042799 1.880790849211783e-38 1700951363
0.297274 -2.483162 -10.558108 1.880790849211783e-38 1700951363
0.298437 -2.427846 -10.599393 1.880790849211783e-38 1700951363
0.313858 -1.842083 -11.147093 1.880790849211783e-38 1700951363
0.314635 -1.748381 -11.174695 1.880790849211783e-38 1700951363
0.303915 -2.368667 -10.793954 1.880790849211783e-38 1700951363
0.299099 -2.252932 -10.622930 1.880790849211783e-38 1700951363
0.288683 -1.433787 -11.483974 1.880790849211783e-38 1700951363
0.294270 -1.401696 -11.706255 1.880790849211783e-38 1700951363
0.288883 -1.307889 -11.491945 1.880790849211783e-38 1700951363
0.295686 -1.256910 -11.762563 1.880790849211783e-38 1700951363
0.282640 -1.686562 -11.243585 1.880790849211783e-38 1700951363
0.285861 -1.631374 -11.371733 1.880790849211783e-38 1700951363
0.298980 -1.217410 -11.893612 1.880790849211783e-38 1700951363
0.298267 -1.136870 -11.865265 1.880790849211783e-38 1700951363
0.279749 -1.535055 -11.128602 1.880790849211783e-38 1700951363
0.288059 -1.515045 -11.459179 1.880790849211783e-38 1700951363
0.291346 -1.025171 -11.589923 1.880790849211783e-38 1700951363
0.301576 -1.007200 -11.996893 1.880790849211783e-38 1700951363
0.269265 -2.151077 -10.711546 1.880790849211783e-38 1700951363
0.275115 -2.083676 -10.944250 1.880790849211783e-38 1700951363
0.287577 -3.371076 -11.439984 1.880790849211783e-38 1700951363
0.286455 -3.271708 -11.395348 1.880790849211783e-38 1700951363
0.280898 -3.098568 -11.174304 1.880790849211783e-38 1700951363
0.274812 -2.933073 -10.932190 1.880790849211783e-38 1700951363
0.302104 -3.941922 -12.017870 1.880790849211783e-38 1700951363
0.274130 -2.814302 -10.905066 1.880790849211783e-38 1700951363
0.268663 -2.631421 -10.687577 1.880790849211783e-38 1700951363
0.293333 -3.701017 -11.668962 1.880790849211783e-38 1700951363
0.297949 -3.623537 -11.852595 1.880790849211783e-38 1700951363
0.278649 -2.022046 -11.084846 1.880790849211783e-38 1700951363
0.273914 -1.889644 -10.896456 1.880790849211783e-38 1700951363
0.265633 -2.485060 -10.567029 1.880790849211783e-38 1700951363
0.266833 -2.431179 -10.614799 1.880790849211783e-38 1700951363
0.277442 -1.823716 -11.036834 1.880790849211783e-38 1700951363
0.284249 -1.769035 -11.307609 1.880790849211783e-38 1700951363
0.268705 -2.345505 -10.689268 1.880790849211783e-38 1700951363
0.268279 -2.263220 -10.672296 1.880790849211783e-38 1700951363
0.252375 -1.424357 -11.409261 1.880790849211783e-38 1700951363
0.259621 -1.405258 -11.736835 1.880790849211783e-38 1700951363
0.253445 -1.303893 -11.457653 1.880790849211783e-38 1700951363
0.255703 -1.235147 -11.559723 1.880790849211783e-38 1700951363
0.247846 -1.680581 -11.204514 1.880790849211783e-38 1700951363
0.250528 -1.624666 -11.325781 1.880790849211783e-38 1700951363
0.258174 -1.194582 -11.671428 1.880790849211783e-38 1700951363
0.260401 -1.127864 -11.772118 1.880790849211783e-38 1700951363
0.245985 -1.533814 -11.120397 1.880790849211783e-38 1700951363
0.248125 -1.482937 -11.217125 1.880790849211783e-38 1700951363
0.259063 -1.035861 -11.711619 1.880790849211783e-38 1700951363
0.261616 -0.992869 -11.827033 1.880790849211783e-38 1700951363
0.261644 -0.918004 -11.828314 1.880790849211783e-38 1700951363
0.238281 -2.163082 -10.772092 1.880790849211783e-38 1700951363
0.246108 -2.118116 -11.125932 1.880790849211783e-38 1700951363
0.246279 -3.280578 -11.133667 1.880790849211783e-38 1700951363
0.250966 -3.257186 -11.345575 1.880790849211783e-38 1700951363
0.252572 -3.165963 -11.418164 1.880790849211783e-38 1700951363
0.242620 -2.942548 -10.968287 1.880790849211783e-38 1700951363
0.268548 -3.981828 -12.140396 1.880790849211783e-38 1700951363
0.242236 -2.825931 -10.950907 1.880790849211783e-38 1700951363
0.246913 -2.748117 -11.162334 1.880790849211783e-38 1700951363
0.261020 -3.742333 -11.800067 1.880790849211783e-38 1700951363
0.266406 -3.681666 -12.043594 1.880790849211783e-38 1700951363
0.243552 -2.008325 -11.010411 1.880790849211783e-38 1700951363
0.244999 -1.920609 -11.075803 1.880790849211783e-38 1700951363
0.233105 -2.478083 -10.538112 1.880790849211783e-38 1700951363
0.235479 -2.438026 -10.645452 1.880790849211783e-38 1700951363
0.240859 -1.799102 -10.888653 1.880790849211783e-38 1700951363
0.247570 -1.750831 -11.192050 1.880790849211783e-38 1700951363
0.230803 -2.289342 -10.434055 1.880790849211783e-38 1700951363
0.241561 -2.315671 -10.920410 1.880790849211783e-38 1700951363
0.218930 -1.430654 -11.460411 1.880790849211783e-38 1700951363
0.218403 -1.368772 -11.432814 1.880790849211783e-38 1700951363
0.221755 -1.320956 -11.608313 1.880790849211783e-38 1700951363
0.222449 -1.244142 -11.644625 1.880790849211783e-38 1700951363
0.213240 -1.674184 -11.162557 1.880790849211783e-38 1700951363
0.214029 -1.607079 -11.203873 1.880790849211783e-38 1700951363
0.225443 -1.207807 -11.801367 1.880790849211783e-38 1700951363
0.219265 -1.099610 -11.477929 1.880790849211783e-38 1700951363
0.211538 -1.527249 -11.073485 1.880790849211783e-38 1700951363
0.217028 -1.501844 -11.360850 1.880790849211783e-38 1700951363
0.225401 -1.043541 -11.799181 1.880790849211783e-38 1700951363
0.225788 -0.992167 -11.819403 1.880790849211783e-38 1700951363
0.226111 -0.918567 -11.836309 1.880790849211783e-38 1700951363
0.200034 -2.102547 -10.471281 1.880790849211783e-38 1700951363
0.206711 -2.059895 -10.820787 1.880790849211783e-38 1700951363
0.221347 -3.413920 -11.586924 1.880790849211783e-38 1700951363
0.217378 -3.266632 -11.379187 1.880790849211783e-38 1700951363
0.211351 -3.067481 -11.063674 1.880790849211783e-38 1700951363
0.211452 -2.969376 -11.068976 1.880790849211783e-38 1700951363
0.227600 -3.907416 -11.914259 1.880790849211783e-38 1700951363
0.211148 -2.852110 -11.053044 1.880790849211783e-38 1700951363
0.207744 -2.677181 -10.874880 1.880790849211783e-38 1700951363
0.222886 -3.700068 -11.667528 1.880790849211783e-38 1700951363
0.227141 -3.634558 -11.890232 1.880790849211783e-38 1700951363
0.209327 -1.998590 -10.957725 1.880790849211783e-38 1700951363
0.209904 -1.905257 -10.987954 1.880790849211783e-38 1700951363
0.202525 -2.492874 -10.601668 1.880790849211783e-38 1700951363
0.200206 -2.400043 -10.480253 1.880790849211783e-38 1700951363
0.203025 -1.755895 -10.627813 1.880790849211783e-38 1700951363
0.211515 -1.731986 -11.072271 1.880790849211783e-38 1700951363
0.202317 -2.323585 -10.590780 1.880790849211783e-38 1700951363
0.203007 -2.253289 -10.626888 1.880790849211783e-38 1700951363
0.182986 -1.419954 -11.375304 1.880790849211783e-38 1700951363
0.185728 -1.382226 -11.545804 1.880790849211783e-38 1700951363
0.183218 -1.296018 -11.389771 1.880790849211783e-38 1700951363
0.184428 -1.224883 -11.464983 1.880790849211783e-38 1700951363
0.176985 -1.650054 -11.002257 1.880790849211783e-38 1700951363
0.180986 -1.613750 -11.250978 1.880790849211783e-38 1700951363
0.189240 -1.203928 -11.764092 1.880790849211783e-38 1700951363
0.187622 -1.117332 -11.663527 1.880790849211783e-38 1700951363
0.181405 -1.555241 -11.277044 1.880790849211783e-38 1700951363
0.180423 -1.482617 -11.215995 1.880790849211783e-38 1700951363
0.187395 -1.030241 -11.649417 1.880790849211783e-38 1700951363
0.185423 -0.967555 -11.526822 1.880790849211783e-38 1700951363
0.192586 -0.929057 -11.972113 1.880790849211783e-38 1700951363
0.170492 -2.128005 -10.598632 1.880790849211783e-38 1700951363
0.172260 -2.038421 -10.708548 1.880790849211783e-38 1700951363
0.188707 -3.456184 -11.730993 1.880790849211783e-38 1700951363
0.184689 -3.295751 -11.481228 1.880790849211783e-38 1700951363
0.178927 -3.083773 -11.123026 1.880790849211783e-38 1700951363
0.178326 -2.973697 -11.085671 1.880790849211783e-38 1700951363
0.196035 -4.113603 -12.186552 1.880790849211783e-38 1700951363
0.190955 -3.892931 -11.870722 1.880790849211783e-38 1700951363
0.174055 -2.791868 -10.820155 1.880790849211783e-38 1700951363
0.176912 -2.707283 -10.997744 1.880790849211783e-38 1700951363
0.188380 -3.713554 -11.710675 1.880790849211783e-38 1700951363
0.192577 -3.659217 -11.971537 1.880790849211783e-38 1700951363
0.177112 -2.008052 -11.010183 1.880790849211783e-38 1700951363
0.175262 -1.889074 -10.895203 1.880790849211783e-38 1700951363
0.172605 -2.522913 -10.729987 1.880790849211783e-38 1700951363
0.170107 -2.421550 -10.574731 1.880790849211783e-38 1700951363
0.173594 -1.782845 -10.791507 1.880790849211783e-38 1700951363
0.177361 -1.724598 -11.025630 1.880790849211783e-38 1700951363
0.170865 -2.330270 -10.621814 1.880790849211783e-38 1700951363
0.170656 -2.249347 -10.608856 1.880790849211783e-38 1700951363
0.146704 -1.401114 -11.224867 1.880790849211783e-38 1700951363
0.146743 -1.344100 -11.227830 1.880790849211783e-38 1700951363
0.147247 -1.281928 -11.266434 1.880790849211783e-38 1700951363
0.151517 -1.238519 -11.593120 1.880790849211783e-38 1700951363
0.146987 -1.686614 -11.246526 1.880790849211783e-38 1700951363
0.144084 -1.581181 -11.024388 1.880790849211783e-38 1700951363
0.150730 -1.180215 -11.532887 1.880790849211783e-38 1700951363
0.153207 -1.122921 -11.722389 1.880790849211783e-38 1700951363
0.146221 -1.542876 -11.187879 1.880790849211783e-38 1700951363
0.146198 -1.478604 -11.186131 1.880790849211783e-38 1700951363
0.152865 -1.034340 -11.696279 1.880790849211783e-38 1700951363
0.150968 -0.969548 -11.551075 1.880790849211783e-38 1700951363
0.158304 -0.939904 -12.112426 1.880790849211783e-38 1700951363
0.136911 -2.103202 -10.475559 1.880790849211783e-38 1700951363
0.140631 -2.048164 -10.760208 1.880790849211783e-38 1700951363
0.150785 -3.398912 -11.537108 1.880790849211783e-38 1700951363
0.147404 -3.237384 -11.278395 1.880790849211783e-38 1700951363
0.146870 -3.115386 -11.237546 1.880790849211783e-38 1700951363
0.145142 -2.978836 -11.105317 1.880790849211783e-38 1700951363
0.162740 -4.202971 -12.451853 1.880790849211783e-38 1700951363
0.157970 -3.963646 -12.086886 1.880790849211783e-38 1700951363
0.145035 -2.863208 -11.097128 1.880790849211783e-38 1700951363
0.143519 -2.703089 -10.981186 1.880790849211783e-38 1700951363
0.155323 -3.768463 -11.884354 1.880790849211783e-38 1700951363
0.153692 -3.594254 -11.759520 1.880790849211783e-38 1700951363
0.140568 -1.961497 -10.755396 1.880790849211783e-38 1700951363
0.143640 -1.905496 -10.990396 1.880790849211783e-38 1700951363
0.138257 -2.487200 -10.578563 1.880790849211783e-38 1700951363
0.140066 -2.454011 -10.716955 1.880790849211783e-38 1700951363
0.141009 -1.782369 -10.789098 1.880790849211783e-38 1700951363
0.140692 -1.683733 -10.764841 1.880790849211783e-38 1700951363
0.137504 -2.308032 -10.520914 1.880790849211783e-38 1700951363
0.139692 -2.266105 -10.688365 1.880790849211783e-38 1700951363
0.115314 -1.431713 -11.470411 1.880790849211783e-38 1700951363
0.114976 -1.369065 -11.436767 1.880790849211783e-38 1700951363
0.116628 -1.319967 -11.601153 1.880790849211783e-38 1700951363
0.115313 -1.225361 -11.470355 1.880790849211783e-38 1700951363
0.109783 -1.637624 -10.920235 1.880790849211783e-38 1700951363
0.113269 -1.615916 -11.266968 1.880790849211783e-38 1700951363
0.117441 -1.195427 -11.681944 1.880790849211783e-38 1700951363
0.116538 -1.110412 -11.592210 1.880790849211783e-38 1700951363
0.112241 -1.539630 -11.164733 1.880790849211783e-38 1700951363
0.112737 -1.482241 -11.214038 1.880790849211783e-38 1700951363
0.117235 -1.031231 -11.661532 1.880790849211783e-38 1700951363
0.118204 -0.986872 -11.757884 1.880790849211783e-38 1700951363
0.105823 -2.113327 -10.526357 1.880790849211783e-38 1700951363
0.106792 -2.021919 -10.622694 1.880790849211783e-38 1700951363
0.116031 -3.400158 -11.541740 1.880790849211783e-38 1700951363
0.113109 -3.229425 -11.251060 1.880790849211783e-38 1700951363
0.114079 -3.145764 -11.347517 1.880790849211783e-38 1700951363
0.112176 -2.992948 -11.158319 1.880790849211783e-38 1700951363
0.122113 -4.099833 -12.146713 1.880790849211783e-38 1700951363
0.119816 -3.908210 -11.918252 1.880790849211783e-38 1700951363
0.110995 -2.848579 -11.040815 1.880790849211783e-38 1700951363
0.111817 -2.737802 -11.122594 1.880790849211783e-38 1700951363
0.119476 -3.768361 -11.884443 1.880790849211783e-38 1700951363
0.119274 -3.626171 -11.864360 1.880790849211783e-38 1700951363
0.108886 -1.975225 -10.831046 1.880790849211783e-38 1700951363
0.106301 -1.833222 -10.573909 1.880790849211783e-38 1700951363
0.106321 -2.486485 -10.575894 1.880790849211783e-38 1700951363
0.106921 -2.435296 -10.635595 1.880790849211783e-38 1700951363
0.105976 -1.741408 -10.541520 1.880790849211783e-38 1700951363
0.110796 -1.723745 -11.021045 1.880790849211783e-38 1700951363
0.105322 -2.298204 -10.476480 1.880790849211783e-38 1700951363
0.105461 -2.224045 -10.490349 1.880790849211783e-38 1700951363
0.079900 -1.417148 -11.354010 1.880790849211783e-38 1700951363
0.081133 -1.380098 -11.529230 1.880790849211783e-38 1700951363
0.080721 -1.305089 -11.470682 1.880790849211783e-38 1700951363
0.082035 -1.245311 -11.657410 1.880790849211783e-38 1700951363
0.076576 -1.631796 -10.881653 1.880790849211783e-38 1700951363
0.079487 -1.619936 -11.295284 1.880790849211783e-38 1700951363
0.083255 -1.210622 -11.830746 1.880790849211783e-38 1700951363
0.083694 -1.139200 -11.893052 1.880790849211783e-38 1700951363
0.079156 -1.551107 -11.248247 1.880790849211783e-38 1700951363
0.078185 -1.468488 -11.110274 1.880790849211783e-38 1700951363
0.083483 -1.049027 -11.863082 1.880790849211783e-38 1700951363
0.083072 -0.990782 -11.804768 1.880790849211783e-38 1700951363
0.072889 -2.079407 -10.357672 1.880790849211783e-38 1700951363
0.076425 -2.067055 -10.860107 1.880790849211783e-38 1700951363
0.080864 -3.385098 -11.490915 1.880790849211783e-38 1700951363
0.079212 -3.230804 -11.256156 1.880790849211783e-38 1700951363
0.079145 -3.117708 -11.246604 1.880790849211783e-38 1700951363
0.077787 -2.964793 -11.053637 1.880790849211783e-38 1700951363
0.084650 -4.059969 -12.028920 1.880790849211783e-38 1700951363
0.083375 -3.884973 -11.847695 1.880790849211783e-38 1700951363
0.076480 -2.803910 -10.867962 1.880790849211783e-38 1700951363
0.075106 -2.627017 -10.672793 1.880790849211783e-38 1700951363
0.081623 -3.677703 -11.598831 1.880790849211783e-38 1700951363
0.082823 -3.597048 -11.769377 1.880790849211783e-38 1700951363
0.075354 -1.952731 -10.707981 1.880790849211783e-38 1700951363
0.076080 -1.874290 -10.811068 1.880790849211783e-38 1700951363
0.075039 -2.506940 -10.663172 1.880790849211783e-38 1700951363
0.073174 -2.380887 -10.398245 1.880790849211783e-38 1700951363
0.075239 -1.766162 -10.691637 1.880790849211783e-38 1700951363
0.077182 -1.715361 -10.967720 1.880790849211783e-38 1700951363
0.074151 -2.311436 -10.537068 1.880790849211783e-38 1700951363
0.072462 -2.182984 -10.296936 1.880790849211783e-38 1700951363
0.046759 -1.451378 -11.628449 1.880790849211783e-38 1700951363
0.046631 -1.388137 -11.596585 1.880790849211783e-38 1700951363
0.047060 -1.331535 -11.703318 1.880790849211783e-38 1700951363
0.047047 -1.249835 -11.699947 1.880790849211783e-38 1700951363
0.044831 -1.671853 -11.148958 1.880790849211783e-38 1700951363
0.044930 -1.602462 -11.173631 1.880790849211783e-38 1700951363
0.047597 -1.211211 -11.836690 1.880790849211783e-38 1700951363
0.047733 -1.137041 -11.870706 1.880790849211783e-38 1700951363
0.045720 -1.567887 -11.370121 1.880790849211783e-38 1700951363
0.045414 -1.492731 -11.293882 1.880790849211783e-38 1700951363
0.047686 -1.048643 -11.858931 1.880790849211783e-38 1700951363
0.047565 -0.992777 -11.828730 1.880790849211783e-38 1700951363
0.041356 -2.064748 -10.284823 1.880790849211783e-38 1700951363
0.043191 -2.044389 -10.741204 1.880790849211783e-38 1700951363
0.046394 -3.398809 -11.537649 1.880790849211783e-38 1700951363
0.045828 -3.271155 -11.396927 1.880790849211783e-38 1700951363
