# .PCD v0.7 - Point Cloud Data file format
VERSION 0.7
FIELDS x y z rgb label
SIZE 4 4 4 4 4
TYPE F F F F U
COUNT 1 1 1 1 1
WIDTH 736
HEIGHT 1
VIEWPOINT 0 0 0 1 0 0 0
POINTS 736
DATA ascii
-0.226068 -2.149894 -10.706651 1.880790849211783e-38 1700951363
-0.232073 -2.092394 -10.991060 1.880790849211783e-38 1700951363
-0.241650 -3.372133 -11.444636 1.880790849211783e-38 1700951363
-0.235696 -3.204595 -11.162632 1.880790849211783e-38 1700951363
-0.237415 -3.117616 -11.244042 1.880790849211783e-38 1700951363
-0.236012 -2.998636 -11.177596 1.880790849211783e-38 1700951363
-0.259003 -4.140963 -12.266458 1.880790849211783e-38 1700951363
-0.254610 -3.954854 -12.058416 1.880790849211783e-38 1700951363
-0.234122 -2.861267 -11.088082 1.880790849211783e-38 1700951363
-0.233247 -2.719581 -11.046667 1.880790849211783e-38 1700951363
-0.247108 -3.711508 -11.703128 1.880790849211783e-38 1700951363
-0.250953 -3.633178 -11.885236 1.880790849211783e-38 1700951363
-0.234284 -2.023849 -11.095765 1.880790849211783e-38 1700951363
-0.232733 -1.911295 -11.022332 1.880790849211783e-38 1700951363
-0.224811 -2.503666 -10.647134 1.880790849211783e-38 1700951363
-0.223355 -2.422563 -10.578164 1.880790849211783e-38 1700951363
-0.240294 -1.880309 -11.380384 1.880790849211783e-38 1700951363
-0.241542 -1.789501 -11.439493 1.880790849211783e-38 1700951363
-0.230887 -2.399179 -10.934895 1.880790849211783e-38 1700951363
-0.228723 -2.296957 -10.832392 1.880790849211783e-38 1700951363
-0.289482 -1.497645 -11.995750 1.880790849211783e-38 1700951363
-0.288367 -1.430793 -11.949554 1.880790849211783e-38 1700951363
-0.291750 -1.375888 -12.089731 1.880790849211783e-38 1700951363
-0.288914 -1.279282 -11.972222 1.880790849211783e-38 1700951363
-0.273086 -1.697434 -11.316345 1.880790849211783e-38 1700951363
-0.280096 -1.665060 -11.606827 1.880790849211783e-38 1700951363
-0.288978 -1.225698 -11.974883 1.880790849211783e-38 1700951363
-0.280956 -1.605895 -11.642453 1.880790849211783e-38 1700951363
-0.283187 -1.551459 -11.734892 1.880790849211783e-38 1700951363
-0.264136 -2.197996 -10.945456 1.880790849211783e-38 1700951363
-0.266020 -2.098722 -11.023547 1.880790849211783e-38 1700951363
-0.276409 -3.375138 -11.454052 1.880790849211783e-38 1700951363
-0.276676 -3.291654 -11.465103 1.880790849211783e-38 1700951363
-0.271677 -3.121680 -11.257934 1.880790849211783e-38 1700951363
-0.273404 -3.039595 -11.329503 1.880790849211783e-38 1700951363
-0.284614 -3.868403 -11.794024 1.880790849211783e-38 1700951363
-0.267269 -2.858164 -11.075299 1.880790849211783e-38 1700951363
-0.263727 -2.690674 -10.928503 1.880790849211783e-38 1700951363
-0.285104 -3.747030 -11.814330 1.880790849211783e-38 1700951363
-0.286492 -3.629340 -11.871872 1.880790849211783e-38 1700951363
-0.271700 -2.053745 -11.258898 1.880790849211783e-38 1700951363
-0.272537 -1.958465 -11.293587 1.880790849211783e-38 1700951363
-0.256466 -2.499252 -10.627641 1.880790849211783e-38 1700951363
-0.259479 -2.462654 -10.752488 1.880790849211783e-38 1700951363
-0.266879 -1.827353 -11.059120 1.880790849211783e-38 1700951363
-0.275949 -1.788915 -11.434969 1.880790849211783e-38 1700951363
-0.264127 -2.401581 -10.945093 1.880790849211783e-38 1700951363
-0.261055 -2.294020 -10.817802 1.880790849211783e-38 1700951363
-0.328951 -1.512782 -12.116054 1.880790849211783e-38 1700951363
-0.325933 -1.437531 -12.004894 1.880790849211783e-38 1700951363
-0.317617 -1.331477 -11.698593 1.880790849211783e-38 1700951363
-0.330864 -1.302283 -12.186534 1.880790849211783e-38 1700951363
-0.318918 -1.762094 -11.746507 1.880790849211783e-38 1700951363
-0.316009 -1.669858 -11.639372 1.880790849211783e-38 1700951363
-0.330336 -1.245468 -12.167090 1.880790849211783e-38 1700951363
-0.317652 -1.613943 -11.699895 1.880790849211783e-38 1700951363
-0.320148 -1.559108 -11.791832 1.880790849211783e-38 1700951363
-0.297132 -2.197890 -10.944082 1.880790849211783e-38 1700951363
-0.302101 -2.118600 -11.127098 1.880790849211783e-38 1700951363
-0.313655 -3.404462 -11.552674 1.880790849211783e-38 1700951363
-0.306610 -3.242549 -11.293192 1.880790849211783e-38 1700951363
-0.305324 -3.118567 -11.245835 1.880790849211783e-38 1700951363
-0.300899 -2.973650 -11.082846 1.880790849211783e-38 1700951363
-0.325175 -3.928718 -11.976985 1.880790849211783e-38 1700951363
-0.301765 -2.868562 -11.114733 1.880790849211783e-38 1700951363
-0.294515 -2.670990 -10.847716 1.880790849211783e-38 1700951363
-0.318700 -3.723263 -11.738486 1.880790849211783e-38 1700951363
-0.322046 -3.626522 -11.861734 1.880790849211783e-38 1700951363
-0.306643 -2.060378 -11.294391 1.880790849211783e-38 1700951363
-0.306738 -1.959365 -11.297901 1.880790849211783e-38 1700951363
-0.286118 -2.478462 -10.538418 1.880790849211783e-38 1700951363
-0.288420 -2.433230 -10.623195 1.880790849211783e-38 1700951363
-0.302283 -1.839835 -11.133801 1.880790849211783e-38 1700951363
-0.308771 -1.779323 -11.372775 1.880790849211783e-38 1700951363
-0.291498 -2.356010 -10.736574 1.880790849211783e-38 1700951363
-0.296857 -2.318834 -10.933970 1.880790849211783e-38 1700951363
-0.353800 -1.464392 -11.727479 1.880790849211783e-38 1700951363
-0.362833 -1.440291 -12.026903 1.880790849211783e-38 1700951363
-0.362470 -1.367593 -12.014877 1.880790849211783e-38 1700951363
-0.363323 -1.287071 -12.043138 1.880790849211783e-38 1700951363
-0.354184 -1.761301 -11.740207 1.880790849211783e-38 1700951363
-0.352196 -1.675016 -11.674320 1.880790849211783e-38 1700951363
-0.372298 -1.263342 -12.340631 1.880790849211783e-38 1700951363
-0.354564 -1.621383 -11.752814 1.880790849211783e-38 1700951363
-0.355644 -1.558815 -11.788600 1.880790849211783e-38 1700951363
-0.326562 -2.174083 -10.824602 1.880790849211783e-38 1700951363
-0.340906 -2.151721 -11.300073 1.880790849211783e-38 1700951363
-0.348557 -3.405050 -11.553672 1.880790849211783e-38 1700951363
-0.341230 -3.247893 -11.310826 1.880790849211783e-38 1700951363
-0.343522 -3.157927 -11.386787 1.880790849211783e-38 1700951363
-0.339228 -3.017276 -11.244470 1.880790849211783e-38 1700951363
-0.369408 -4.016925 -12.244831 1.880790849211783e-38 1700951363
-0.335477 -2.870201 -11.120123 1.880790849211783e-38 1700951363
-0.328785 -2.683679 -10.898310 1.880790849211783e-38 1700951363
-0.357453 -3.758500 -11.848555 1.880790849211783e-38 1700951363
-0.358635 -3.634784 -11.887733 1.880790849211783e-38 1700951363
-0.335986 -2.031842 -11.136998 1.880790849211783e-38 1700951363
-0.340479 -1.957455 -11.285913 1.880790849211783e-38 1700951363
-0.325148 -2.534970 -10.777759 1.880790849211783e-38 1700951363
-0.320174 -2.431071 -10.612852 1.880790849211783e-38 1700951363
-0.339416 -1.859309 -11.250675 1.880790849211783e-38 1700951363
-0.348793 -1.809009 -11.561517 1.880790849211783e-38 1700951363
-0.326293 -2.373574 -10.815681 1.880790849211783e-38 1700951363
-0.336427 -2.365191 -11.151594 1.880790849211783e-38 1700951363
-0.392535 -1.477059 -11.827793 1.880790849211783e-38 1700951363
-0.400148 -1.444056 -12.057191 1.880790849211783e-38 1700951363
-0.401500 -1.377178 -12.097924 1.880790849211783e-38 1700951363
-0.403152 -1.298370 -12.147703 1.880790849211783e-38 1700951363
-0.389531 -1.761032 -11.737294 1.880790849211783e-38 1700951363
-0.387609 -1.675902 -11.679379 1.880790849211783e-38 1700951363
-0.405577 -1.251191 -12.220769 1.880790849211783e-38 1700951363
-0.386685 -1.607563 -11.651527 1.880790849211783e-38 1700951363
-0.387882 -1.545606 -11.687589 1.880790849211783e-38 1700951363
-0.364212 -2.204373 -10.974366 1.880790849211783e-38 1700951363
-0.374460 -2.148709 -11.283180 1.880790849211783e-38 1700951363
-0.382737 -3.399153 -11.532562 1.880790849211783e-38 1700951363
-0.374546 -3.241001 -11.285750 1.880790849211783e-38 1700951363
-0.381119 -3.185143 -11.483824 1.880790849211783e-38 1700951363
-0.367424 -2.971058 -11.071171 1.880790849211783e-38 1700951363
-0.403624 -3.990110 -12.161929 1.880790849211783e-38 1700951363
-0.367538 -2.858725 -11.074602 1.880790849211783e-38 1700951363
-0.360612 -2.675956 -10.865907 1.880790849211783e-38 1700951363
-0.391312 -3.740587 -11.790958 1.880790849211783e-38 1700951363
-0.398167 -3.668700 -11.997510 1.880790849211783e-38 1700951363
-0.377969 -2.077999 -11.388908 1.880790849211783e-38 1700951363
-0.378288 -1.977173 -11.398509 1.880790849211783e-38 1700951363
-0.356194 -2.524633 -10.732785 1.880790849211783e-38 1700951363
-0.357896 -2.470524 -10.784054 1.880790849211783e-38 1700951363
-0.376738 -1.876202 -11.351809 1.880790849211783e-38 1700951363
-0.379188 -1.787916 -11.425619 1.880790849211783e-38 1700951363
-0.362752 -2.398973 -10.930373 1.880790849211783e-38 1700951363
-0.360558 -2.304474 -10.864284 1.880790849211783e-38 1700951363
-0.438144 -1.511350 -12.101116 1.880790849211783e-38 1700951363
-0.436134 -1.442818 -12.045596 1.880790849211783e-38 1700951363
-0.445881 -1.402014 -12.314816 1.880790849211783e-38 1700951363
-0.441279 -1.302781 -12.187706 1.880790849211783e-38 1700951363
-0.424462 -1.759106 -11.723228 1.880790849211783e-38 1700951363
-0.430146 -1.704901 -11.880230 1.880790849211783e-38 1700951363
-0.425648 -1.622145 -11.755988 1.880790849211783e-38 1700951363
-0.428936 -1.566825 -11.846801 1.880790849211783e-38 1700951363
-0.404068 -2.241890 -11.159977 1.880790849211783e-38 1700951363
-0.406788 -2.139778 -11.235107 1.880790849211783e-38 1700951363
-0.425915 -3.467543 -11.763364 1.880790849211783e-38 1700951363
-0.401615 -3.185759 -11.092223 1.880790849211783e-38 1700951363
-0.414839 -3.178162 -11.457457 1.880790849211783e-38 1700951363
-0.403146 -2.988366 -11.134501 1.880790849211783e-38 1700951363
-0.440041 -3.987767 -12.153515 1.880790849211783e-38 1700951363
-0.403999 -2.880572 -11.158070 1.880790849211783e-38 1700951363
-0.397616 -2.704774 -10.981774 1.880790849211783e-38 1700951363
-0.432871 -3.793177 -11.955480 1.880790849211783e-38 1700951363
-0.432668 -3.654516 -11.949872 1.880790849211783e-38 1700951363
-0.407339 -2.052925 -11.250308 1.880790849211783e-38 1700951363
-0.412224 -1.975078 -11.385243 1.880790849211783e-38 1700951363
-0.384639 -2.499154 -10.623354 1.880790849211783e-38 1700951363
-0.386159 -2.443588 -10.665357 1.880790849211783e-38 1700951363
-0.409091 -1.867620 -11.298706 1.880790849211783e-38 1700951363
-0.413352 -1.786658 -11.416387 1.880790849211783e-38 1700951363
-0.396243 -2.402186 -10.943868 1.880790849211783e-38 1700951363
-0.400698 -2.347695 -11.066889 1.880790849211783e-38 1700951363
-0.471564 -1.501559 -12.021355 1.880790849211783e-38 1700951363
-0.480289 -1.466723 -12.243778 1.880790849211783e-38 1700951363
-0.483274 -1.402750 -12.319873 1.880790849211783e-38 1700951363
-0.485103 -1.322045 -12.366513 1.880790849211783e-38 1700951363
-0.469546 -1.796325 -11.969908 1.880790849211783e-38 1700951363
-0.470807 -1.722579 -12.002052 1.880790849211783e-38 1700951363
-0.465267 -1.636800 -11.860843 1.880790849211783e-38 1700951363
-0.467751 -1.577237 -11.924167 1.880790849211783e-38 1700951363
-0.434872 -2.227280 -11.085984 1.880790849211783e-38 1700951363
-0.446382 -2.167507 -11.379406 1.880790849211783e-38 1700951363
-0.456655 -3.431952 -11.641296 1.880790849211783e-38 1700951363
-0.441626 -3.233783 -11.258155 1.880790849211783e-38 1700951363
-0.447766 -3.166659 -11.414689 1.880790849211783e-38 1700951363
-0.441674 -3.022226 -11.259381 1.880790849211783e-38 1700951363
-0.437640 -2.880507 -11.156549 1.880790849211783e-38 1700951363
-0.429738 -2.698512 -10.955104 1.880790849211783e-38 1700951363
-0.462171 -3.738533 -11.781911 1.880790849211783e-38 1700951363
-0.466321 -3.635921 -11.887716 1.880790849211783e-38 1700951363
-0.447202 -2.080534 -11.400314 1.880790849211783e-38 1700951363
-0.449822 -1.989506 -11.467107 1.880790849211783e-38 1700951363
-0.420929 -2.524658 -10.730546 1.880790849211783e-38 1700951363
-0.424826 -2.481566 -10.829888 1.880790849211783e-38 1700951363
-0.449205 -1.893072 -11.451378 1.880790849211783e-38 1700951363
-0.455381 -1.816981 -11.608820 1.880790849211783e-38 1700951363
-0.427520 -2.392515 -10.898570 1.880790849211783e-38 1700951363
-0.430813 -2.330063 -10.982521 1.880790849211783e-38 1700951363
-0.508119 -1.502448 -12.026996 1.880790849211783e-38 1700951363
-0.516405 -1.464431 -12.223142 1.880790849211783e-38 1700951363
-0.515834 -1.390368 -12.209625 1.880790849211783e-38 1700951363
-0.524123 -1.326411 -12.405822 1.880790849211783e-38 1700951363
-0.504188 -1.791151 -11.933965 1.880790849211783e-38 1700951363
-0.500015 -1.698840 -11.835191 1.880790849211783e-38 1700951363
-0.505005 -1.649760 -11.953287 1.880790849211783e-38 1700951363
-0.498776 -1.561780 -11.805860 1.880790849211783e-38 1700951363
-0.465801 -2.215371 -11.025356 1.880790849211783e-38 1700951363
-0.480564 -2.166893 -11.374783 1.880790849211783e-38 1700951363
-0.485592 -3.388881 -11.493788 1.880790849211783e-38 1700951363
-0.474079 -3.223590 -11.221289 1.880790849211783e-38 1700951363
-0.482723 -3.170154 -11.425883 1.880790849211783e-38 1700951363
-0.473461 -3.008445 -11.206665 1.880790849211783e-38 1700951363
-0.474385 -2.899446 -11.228520 1.880790849211783e-38 1700951363
-0.467545 -2.726316 -11.066622 1.880790849211783e-38 1700951363
-0.499730 -3.753757 -11.828432 1.880790849211783e-38 1700951363
-0.505515 -3.660119 -11.965364 1.880790849211783e-38 1700951363
-0.477517 -2.062966 -11.302660 1.880790849211783e-38 1700951363
-0.480762 -1.974546 -11.379479 1.880790849211783e-38 1700951363
-0.454649 -2.532223 -10.761379 1.880790849211783e-38 1700951363
-0.464191 -2.517931 -10.987242 1.880790849211783e-38 1700951363
-0.488034 -1.909873 -11.551593 1.880790849211783e-38 1700951363
-0.492069 -1.823197 -11.647106 1.880790849211783e-38 1700951363
-0.464592 -2.414364 -10.996745 1.880790849211783e-38 1700951363
-0.468927 -2.355139 -11.099349 1.880790849211783e-38 1700951363
-0.548097 -1.512680 -12.107301 1.880790849211783e-38 1700951363
-0.553282 -1.464467 -12.221831 1.880790849211783e-38 1700951363
-0.553570 -1.392667 -12.228206 1.880790849211783e-38 1700951363
-0.537364 -1.781819 -11.870223 1.880790849211783e-38 1700951363
-0.530069 -1.680957 -11.709063 1.880790849211783e-38 1700951363
-0.539951 -1.646398 -11.927353 1.880790849211783e-38 1700951363
-0.548556 -1.603209 -12.117435 1.880790849211783e-38 1700951363
-0.504530 -2.239689 -11.144911 1.880790849211783e-38 1700951363
-0.519234 -2.185268 -11.469727 1.880790849211783e-38 1700951363
-0.524694 -3.417803 -11.590348 1.880790849211783e-38 1700951363
-0.512617 -3.253402 -11.323570 1.880790849211783e-38 1700951363
-0.515300 -3.158624 -11.382826 1.880790849211783e-38 1700951363
-0.506532 -3.004137 -11.189140 1.880790849211783e-38 1700951363
-0.499274 -2.848256 -11.028824 1.880790849211783e-38 1700951363
-0.491420 -2.674616 -10.855329 1.880790849211783e-38 1700951363
-0.531009 -3.722959 -11.729838 1.880790849211783e-38 1700951363
-0.535513 -3.618984 -11.829328 1.880790849211783e-38 1700951363
-0.515136 -2.077211 -11.379206 1.880790849211783e-38 1700951363
-0.527754 -2.023130 -11.657938 1.880790849211783e-38 1700951363
-0.491830 -2.556797 -10.864380 1.880790849211783e-38 1700951363
-0.490005 -2.480865 -10.824072 1.880790849211783e-38 1700951363
-0.527453 -1.926611 -11.651293 1.880790849211783e-38 1700951363
-0.531894 -1.839449 -11.749375 1.880790849211783e-38 1700951363
-0.504099 -2.445127 -11.135394 1.880790849211783e-38 1700951363
-0.507935 -2.381082 -11.220135 1.880790849211783e-38 1700951363
-0.587612 -1.520457 -12.167829 1.880790849211783e-38 1700951363
-0.588053 -1.459296 -12.176958 1.880790849211783e-38 1700951363
-0.586708 -1.383853 -12.149102 1.880790849211783e-38 1700951363
-0.570407 -1.773262 -11.811550 1.880790849211783e-38 1700951363
-0.574715 -1.708717 -11.900754 1.880790849211783e-38 1700951363
-0.582646 -1.665631 -12.064988 1.880790849211783e-38 1700951363
-0.582629 -1.596449 -12.064642 1.880790849211783e-38 1700951363
-0.541646 -2.254293 -11.215999 1.880790849211783e-38 1700951363
-0.551217 -2.174992 -11.414184 1.880790849211783e-38 1700951363
-0.556137 -3.396373 -11.516052 1.880790849211783e-38 1700951363
-0.552815 -3.289407 -11.447272 1.880790849211783e-38 1700951363
-0.545786 -3.136559 -11.301715 1.880790849211783e-38 1700951363
-0.539601 -3.000398 -11.173636 1.880790849211783e-38 1700951363
-0.530307 -2.836353 -10.981186 1.880790849211783e-38 1700951363
-0.531738 -2.713309 -11.010814 1.880790849211783e-38 1700951363
-0.571508 -3.756662 -11.834356 1.880790849211783e-38 1700951363
-0.577627 -3.659800 -11.961054 1.880790849211783e-38 1700951363
-0.547011 -2.067987 -11.327076 1.880790849211783e-38 1700951363
-0.564132 -2.027524 -11.681609 1.880790849211783e-38 1700951363
-0.522035 -2.544334 -10.809894 1.880790849211783e-38 1700951363
-0.525125 -2.492632 -10.873877 1.880790849211783e-38 1700951363
-0.563368 -1.929282 -11.665800 1.880790849211783e-38 1700951363
-0.573968 -1.860988 -11.885279 1.880790849211783e-38 1700951363
-0.533630 -2.426718 -11.049995 1.880790849211783e-38 1700951363
-0.546640 -2.402487 -11.319401 1.880790849211783e-38 1700951363
-0.632112 -1.539463 -12.318080 1.880790849211783e-38 1700951363
-0.637493 -1.488999 -12.422946 1.880790849211783e-38 1700951363
-0.636395 -1.412820 -12.401546 1.880790849211783e-38 1700951363
-0.604628 -1.769166 -11.782497 1.880790849211783e-38 1700951363
-0.620447 -1.736259 -12.090763 1.880790849211783e-38 1700951363
-0.615130 -1.655134 -11.987153 1.880790849211783e-38 1700951363
-0.618149 -1.594220 -12.045982 1.880790849211783e-38 1700951363
-0.560800 -2.196822 -10.928413 1.880790849211783e-38 1700951363
-0.589223 -2.188298 -11.482286 1.880790849211783e-38 1700951363
-0.590159 -3.392304 -11.500528 1.880790849211783e-38 1700951363
-0.593659 -3.324809 -11.568732 1.880790849211783e-38 1700951363
-0.585830 -3.168802 -11.416177 1.880790849211783e-38 1700951363
-0.569047 -2.978152 -11.089127 1.880790849211783e-38 1700951363
-0.566803 -2.853364 -11.045387 1.880790849211783e-38 1700951363
-0.571768 -2.746083 -11.142138 1.880790849211783e-38 1700951363
-0.604682 -3.741096 -11.783548 1.880790849211783e-38 1700951363
-0.613857 -3.660743 -11.962338 1.880790849211783e-38 1700951363
-0.591599 -2.105095 -11.528598 1.880790849211783e-38 1700951363
-0.600417 -2.031096 -11.700434 1.880790849211783e-38 1700951363
-0.561474 -2.575707 -10.941543 1.880790849211783e-38 1700951363
-0.561599 -2.509079 -10.943980 1.880790849211783e-38 1700951363
-0.600120 -1.934342 -11.694639 1.880790849211783e-38 1700951363
-0.600846 -1.833629 -11.708788 1.880790849211783e-38 1700951363
-0.569550 -2.437829 -11.098924 1.880790849211783e-38 1700951363
-0.578085 -2.391352 -11.265246 1.880790849211783e-38 1700951363
-0.663593 -1.526427 -12.211828 1.880790849211783e-38 1700951363
-0.668349 -1.474419 -12.299345 1.880790849211783e-38 1700951363
-0.667219 -1.399032 -12.278553 1.880790849211783e-38 1700951363
-0.646901 -1.787792 -11.904647 1.880790849211783e-38 1700951363
-0.659860 -1.744058 -12.143132 1.880790849211783e-38 1700951363
-0.652996 -1.659493 -12.016806 1.880790849211783e-38 1700951363
-0.658658 -1.604405 -12.121012 1.880790849211783e-38 1700951363
-0.611656 -2.263045 -11.256060 1.880790849211783e-38 1700951363
-0.618178 -2.168400 -11.376065 1.880790849211783e-38 1700951363
-0.625521 -3.395993 -11.511201 1.880790849211783e-38 1700951363
-0.627664 -3.320136 -11.550632 1.880790849211783e-38 1700951363
-0.605918 -3.095540 -11.150460 1.880790849211783e-38 1700951363
-0.608027 -3.005523 -11.189259 1.880790849211783e-38 1700951363
-0.601183 -2.858452 -11.063319 1.880790849211783e-38 1700951363
-0.595318 -2.700485 -10.955381 1.880790849211783e-38 1700951363
-0.648873 -3.791671 -11.940947 1.880790849211783e-38 1700951363
-0.663933 -3.739601 -12.218081 1.880790849211783e-38 1700951363
-0.639386 -2.148852 -11.766360 1.880790849211783e-38 1700951363
-0.631064 -2.016275 -11.613200 1.880790849211783e-38 1700951363
-0.601515 -2.606228 -11.069431 1.880790849211783e-38 1700951363
-0.590787 -2.492977 -10.872013 1.880790849211783e-38 1700951363
-0.628526 -1.913452 -11.566497 1.880790849211783e-38 1700951363
-0.644207 -1.856832 -11.855069 1.880790849211783e-38 1700951363
-0.606789 -2.453058 -11.166481 1.880790849211783e-38 1700951363
-0.613072 -2.395311 -11.282102 1.880790849211783e-38 1700951363
-0.712802 -1.553416 -12.425654 1.880790849211783e-38 1700951363
-0.711180 -1.486421 -12.397369 1.880790849211783e-38 1700951363
-0.689003 -1.804034 -12.010777 1.880790849211783e-38 1700951363
-0.691806 -1.732359 -12.059647 1.880790849211783e-38 1700951363
-0.700873 -1.687522 -12.217709 1.880790849211783e-38 1700951363
-0.691982 -1.596958 -12.062718 1.880790849211783e-38 1700951363
-0.649382 -2.276306 -11.320107 1.880790849211783e-38 1700951363
-0.650996 -2.163460 -11.348240 1.880790849211783e-38 1700951363
-0.665377 -3.422454 -11.598940 1.880790849211783e-38 1700951363
-0.652455 -3.269823 -11.373680 1.880790849211783e-38 1700951363
-0.655467 -3.172617 -11.426175 1.880790849211783e-38 1700951363
-0.636716 -2.981863 -11.099303 1.880790849211783e-38 1700951363
-0.629652 -2.836412 -10.976166 1.880790849211783e-38 1700951363
-0.632833 -2.719737 -11.031625 1.880790849211783e-38 1700951363
-0.682632 -3.642776 -11.899729 1.880790849211783e-38 1700951363
-0.664502 -2.115847 -11.583684 1.880790849211783e-38 1700951363
-0.664070 -2.010181 -11.576154 1.880790849211783e-38 1700951363
-0.623854 -2.560903 -10.875092 1.880790849211783e-38 1700951363
-0.624776 -2.497791 -10.891171 1.880790849211783e-38 1700951363
-0.668624 -1.928506 -11.655534 1.880790849211783e-38 1700951363
-0.681617 -1.861370 -11.882035 1.880790849211783e-38 1700951363
-0.637557 -2.441935 -11.113972 1.880790849211783e-38 1700951363
-0.647604 -2.397205 -11.289118 1.880790849211783e-38 1700951363
-0.758055 -1.569525 -12.552279 1.880790849211783e-38 1700951363
-0.754292 -1.497789 -12.489966 1.880790849211783e-38 1700951363
-0.731392 -1.819377 -12.110776 1.880790849211783e-38 1700951363
-0.731949 -1.741337 -12.119996 1.880790849211783e-38 1700951363
-0.739049 -1.690565 -12.237572 1.880790849211783e-38 1700951363
-0.736713 -1.615273 -12.198895 1.880790849211783e-38 1700951363
-0.683420 -2.275971 -11.316432 1.880790849211783e-38 1700951363
-0.700573 -2.211939 -11.600467 1.880790849211783e-38 1700951363
-0.708125 -3.460414 -11.725506 1.880790849211783e-38 1700951363
-0.696062 -3.314133 -11.525762 1.880790849211783e-38 1700951363
-0.686565 -3.157166 -11.368509 1.880790849211783e-38 1700951363
-0.679667 -3.024039 -11.254297 1.880790849211783e-38 1700951363
-0.669935 -2.867151 -11.093146 1.880790849211783e-38 1700951363
-0.667660 -2.726101 -11.055475 1.880790849211783e-38 1700951363
-0.714556 -3.622685 -11.831995 1.880790849211783e-38 1700951363
-0.701071 -2.120796 -11.608715 1.880790849211783e-38 1700951363
-0.712758 -2.049804 -11.802234 1.880790849211783e-38 1700951363
-0.656857 -2.561712 -10.876595 1.880790849211783e-38 1700951363
-0.669786 -2.543995 -11.090670 1.880790849211783e-38 1700951363
-0.710566 -1.947117 -11.765926 1.880790849211783e-38 1700951363
-0.718595 -1.864338 -11.898873 1.880790849211783e-38 1700951363
-0.687711 -2.502476 -11.387493 1.880790849211783e-38 1700951363
-0.695491 -2.445881 -11.516305 1.880790849211783e-38 1700951363
-0.797130 -1.571933 -12.569192 1.880790849211783e-38 1700951363
-0.796024 -1.505479 -12.551751 1.880790849211783e-38 1700951363
-0.774577 -1.835163 -12.213573 1.880790849211783e-38 1700951363
-0.789160 -1.788153 -12.443519 1.880790849211783e-38 1700951363
-0.788432 -1.717751 -12.432042 1.880790849211783e-38 1700951363
-0.772911 -1.614039 -12.187299 1.880790849211783e-38 1700951363
-0.718148 -2.277878 -11.323801 1.880790849211783e-38 1700951363
-0.734240 -2.207977 -11.577529 1.880790849211783e-38 1700951363
-0.748473 -3.483628 -11.801964 1.880790849211783e-38 1700951363
-0.731189 -3.315804 -11.529421 1.880790849211783e-38 1700951363
-0.712116 -3.118917 -11.228683 1.880790849211783e-38 1700951363
-0.718362 -3.044190 -11.327176 1.880790849211783e-38 1700951363
-0.706408 -2.879457 -11.138680 1.880790849211783e-38 1700951363
-0.698194 -2.715187 -11.009159 1.880790849211783e-38 1700951363
-0.750760 -3.625209 -11.838027 1.880790849211783e-38 1700951363
-0.743678 -2.142687 -11.726352 1.880790849211783e-38 1700951363
-0.761853 -2.086788 -12.012936 1.880790849211783e-38 1700951363
-0.703253 -2.612211 -11.088933 1.880790849211783e-38 1700951363
-0.711523 -2.573989 -11.219332 1.880790849211783e-38 1700951363
-0.744340 -1.942660 -11.736799 1.880790849211783e-38 1700951363
-0.760619 -1.879511 -11.993473 1.880790849211783e-38 1700951363
-0.717590 -2.487008 -11.314993 1.880790849211783e-38 1700951363
-0.736295 -2.466228 -11.609936 1.880790849211783e-38 1700951363
-0.838952 -1.579306 -12.625674 1.880790849211783e-38 1700951363
-0.828767 -1.496254 -12.472393 1.880790849211783e-38 1700951363
-0.812853 -1.838427 -12.232901 1.880790849211783e-38 1700951363
-0.811790 -1.755932 -12.216903 1.880790849211783e-38 1700951363
-0.820466 -1.706401 -12.347479 1.880790849211783e-38 1700951363
-0.822460 -1.639546 -12.377478 1.880790849211783e-38 1700951363
-0.767535 -2.324015 -11.550894 1.880790849211783e-38 1700951363
-0.773889 -2.221568 -11.646514 1.880790849211783e-38 1700951363
-0.781958 -3.474268 -11.767948 1.880790849211783e-38 1700951363
-0.750080 -3.247070 -11.288213 1.880790849211783e-38 1700951363
-0.758298 -3.170427 -11.411894 1.880790849211783e-38 1700951363
-0.751098 -3.038432 -11.303537 1.880790849211783e-38 1700951363
-0.733004 -2.852236 -11.031221 1.880790849211783e-38 1700951363
-0.729671 -2.708790 -10.981070 1.880790849211783e-38 1700951363
-0.797063 -3.674082 -11.995272 1.880790849211783e-38 1700951363
-0.779676 -2.144433 -11.733610 1.880790849211783e-38 1700951363
-0.783156 -2.047766 -11.785989 1.880790849211783e-38 1700951363
-0.730291 -2.589506 -10.990398 1.880790849211783e-38 1700951363
-0.740200 -2.556180 -11.139526 1.880790849211783e-38 1700951363
-0.785961 -1.958172 -11.828201 1.880790849211783e-38 1700951363
-0.804688 -1.898148 -12.110023 1.880790849211783e-38 1700951363
-0.755858 -2.500723 -11.375160 1.880790849211783e-38 1700951363
-0.744475 -2.380433 -11.203859 1.880790849211783e-38 1700951363
-0.866724 -1.560759 -12.474838 1.880790849211783e-38 1700951363
-0.845636 -1.829547 -12.171320 1.880790849211783e-38 1700951363
-0.859478 -1.778379 -12.370544 1.880790849211783e-38 1700951363
-0.859960 -1.710898 -12.377481 1.880790849211783e-38 1700951363
-0.854205 -1.628908 -12.294645 1.880790849211783e-38 1700951363
-0.780660 -2.261144 -11.236109 1.880790849211783e-38 1700951363
-0.804129 -2.208169 -11.573898 1.880790849211783e-38 1700951363
-0.818710 -3.479652 -11.783770 1.880790849211783e-38 1700951363
-0.788105 -3.263577 -11.343271 1.880790849211783e-38 1700951363
-0.790603 -3.161999 -11.379225 1.880790849211783e-38 1700951363
-0.778724 -3.013434 -11.208244 1.880790849211783e-38 1700951363
-0.762928 -2.839804 -10.980888 1.880790849211783e-38 1700951363
-0.767148 -2.724287 -11.041628 1.880790849211783e-38 1700951363
-0.830840 -3.663527 -11.958361 1.880790849211783e-38 1700951363
-0.825479 -2.171851 -11.881197 1.880790849211783e-38 1700951363
-0.831002 -2.078544 -11.960687 1.880790849211783e-38 1700951363
-0.768540 -2.606833 -11.061669 1.880790849211783e-38 1700951363
-0.779747 -2.575855 -11.222966 1.880790849211783e-38 1700951363
-0.817275 -1.947795 -11.763108 1.880790849211783e-38 1700951363
-0.835438 -1.885136 -12.024543 1.880790849211783e-38 1700951363
-0.793082 -2.509974 -11.414905 1.880790849211783e-38 1700951363
-0.798091 -2.441090 -11.486994 1.880790849211783e-38 1700951363
-0.908957 -1.568720 -12.535789 1.880790849211783e-38 1700951363
-0.883211 -1.831351 -12.180716 1.880790849211783e-38 1700951363
-0.900095 -1.784946 -12.413567 1.880790849211783e-38 1700951363
-0.899894 -1.715870 -12.410796 1.880790849211783e-38 1700951363
-0.901662 -1.647880 -12.435176 1.880790849211783e-38 1700951363
-0.823879 -2.287057 -11.362442 1.880790849211783e-38 1700951363
-0.850178 -2.237505 -11.725147 1.880790849211783e-38 1700951363
-0.840488 -3.423609 -11.591500 1.880790849211783e-38 1700951363
-0.822195 -3.263109 -11.339217 1.880790849211783e-38 1700951363
-0.831939 -3.188907 -11.473604 1.880790849211783e-38 1700951363
-0.817696 -3.032617 -11.277176 1.880790849211783e-38 1700951363
-0.808244 -2.883330 -11.146808 1.880790849211783e-38 1700951363
-0.807763 -2.749192 -11.140186 1.880790849211783e-38 1700951363
-0.871992 -3.685034 -12.025988 1.880790849211783e-38 1700951363
-0.841078 -2.120837 -11.599638 1.880790849211783e-38 1700951363
-0.862732 -2.068141 -11.898275 1.880790849211783e-38 1700951363
-0.812623 -2.641695 -11.207200 1.880790849211783e-38 1700951363
-0.811399 -2.568912 -11.190320 1.880790849211783e-38 1700951363
-0.857326 -1.958251 -11.823726 1.880790849211783e-38 1700951363
-0.887006 -1.918234 -12.233046 1.880790849211783e-38 1700951363
-0.832502 -2.525128 -11.481359 1.880790849211783e-38 1700951363
-0.831817 -2.438409 -11.471924 1.880790849211783e-38 1700951363
-0.952182 -1.577703 -12.604757 1.880790849211783e-38 1700951363
-0.916292 -1.824081 -12.129647 1.880790849211783e-38 1700951363
-0.940393 -1.790396 -12.448690 1.880790849211783e-38 1700951363
-0.940371 -1.721454 -12.448403 1.880790849211783e-38 1700951363
-0.954031 -1.673970 -12.629237 1.880790849211783e-38 1700951363
-0.864301 -2.303466 -11.441407 1.880790849211783e-38 1700951363
-0.883140 -2.231448 -11.690795 1.880790849211783e-38 1700951363
-0.871039 -3.406385 -11.530609 1.880790849211783e-38 1700951363
-0.865122 -3.296379 -11.452271 1.880790849211783e-38 1700951363
-0.853810 -3.142061 -11.302527 1.880790849211783e-38 1700951363
-0.842679 -3.000480 -11.155180 1.880790849211783e-38 1700951363
-0.835706 -2.862258 -11.062872 1.880790849211783e-38 1700951363
-0.842252 -2.752112 -11.149529 1.880790849211783e-38 1700951363
-0.891282 -2.157693 -11.798581 1.880790849211783e-38 1700951363
-0.904201 -2.081003 -11.969599 1.880790849211783e-38 1700951363
-0.849503 -2.651318 -11.245513 1.880790849211783e-38 1700951363
-0.860974 -2.617026 -11.397363 1.880790849211783e-38 1700951363
-0.887045 -1.945232 -11.742492 1.880790849211783e-38 1700951363
-0.912980 -1.895569 -12.085803 1.880790849211783e-38 1700951363
-0.856872 -2.495270 -11.343068 1.880790849211783e-38 1700951363
-0.879150 -2.474257 -11.637979 1.880790849211783e-38 1700951363
-0.966078 -1.849365 -12.294924 1.880790849211783e-38 1700951363
-0.968710 -1.773510 -12.328417 1.880790849211783e-38 1700951363
-0.976833 -1.719557 -12.431793 1.880790849211783e-38 1700951363
-0.993677 -1.676603 -12.646161 1.880790849211783e-38 1700951363
-0.923341 -2.366348 -11.751014 1.880790849211783e-38 1700951363
-0.923931 -2.244897 -11.758526 1.880790849211783e-38 1700951363
-0.914745 -3.439981 -11.641624 1.880790849211783e-38 1700951363
-0.888502 -3.255502 -11.307631 1.880790849211783e-38 1700951363
-0.897678 -3.176681 -11.424409 1.880790849211783e-38 1700951363
-0.882723 -3.022408 -11.234093 1.880790849211783e-38 1700951363
-0.876632 -2.887171 -11.156569 1.880790849211783e-38 1700951363
-0.874406 -2.747495 -11.128238 1.880790849211783e-38 1700951363
-0.933281 -2.172633 -11.877519 1.880790849211783e-38 1700951363
-0.939945 -2.080223 -11.962331 1.880790849211783e-38 1700951363
-0.883111 -2.650404 -11.239025 1.880790849211783e-38 1700951363
-0.889457 -2.599818 -11.319792 1.880790849211783e-38 1700951363
-0.936753 -1.975380 -11.921714 1.880790849211783e-38 1700951363
-0.979230 -1.955073 -12.462297 1.880790849211783e-38 1700951363
-0.904200 -2.532013 -11.507420 1.880790849211783e-38 1700951363
-0.907778 -2.456751 -11.552949 1.880790849211783e-38 1700951363
-1.012534 -1.866660 -12.406906 1.880790849211783e-38 1700951363
-1.018955 -1.796555 -12.485591 1.880790849211783e-38 1700951363
-1.025150 -1.737917 -12.561500 1.880790849211783e-38 1700951363
-1.046306 -1.700158 -12.820732 1.880790849211783e-38 1700951363
-0.956183 -2.359951 -11.716421 1.880790849211783e-38 1700951363
-0.970696 -2.271358 -11.894249 1.880790849211783e-38 1700951363
-0.947441 -3.431260 -11.609306 1.880790849211783e-38 1700951363
-0.933071 -3.292454 -11.433219 1.880790849211783e-38 1700951363
-0.942086 -3.210624 -11.543690 1.880790849211783e-38 1700951363
-0.934009 -3.079816 -11.444710 1.880790849211783e-38 1700951363
-0.922561 -2.926142 -11.304434 1.880790849211783e-38 1700951363
-0.921946 -2.789810 -11.296898 1.880790849211783e-38 1700951363
-0.987689 -2.214318 -12.102478 1.880790849211783e-38 1700951363
-0.988515 -2.106863 -12.112595 1.880790849211783e-38 1700951363
-0.922149 -2.665284 -11.299397 1.880790849211783e-38 1700951363
-0.911906 -2.566926 -11.173879 1.880790849211783e-38 1700951363
-0.995815 -2.022317 -12.202038 1.880790849211783e-38 1700951363
-0.998732 -1.920316 -12.237782 1.880790849211783e-38 1700951363
-0.933626 -2.517790 -11.440020 1.880790849211783e-38 1700951363
-0.949559 -2.474850 -11.635250 1.880790849211783e-38 1700951363
-1.049352 -1.865599 -12.396749 1.880790849211783e-38 1700951363
-1.056136 -1.795753 -12.476893 1.880790849211783e-38 1700951363
-1.083304 -1.771061 -12.797853 1.880790849211783e-38 1700951363
-1.069268 -1.675554 -12.632034 1.880790849211783e-38 1700951363
-0.994802 -2.367774 -11.752312 1.880790849211783e-38 1700951363
-1.009079 -2.277032 -11.920976 1.880790849211783e-38 1700951363
-0.995984 -3.478525 -11.766273 1.880790849211783e-38 1700951363
-0.972481 -3.309237 -11.488615 1.880790849211783e-38 1700951363
-0.961840 -3.161134 -11.362903 1.880790849211783e-38 1700951363
-0.957050 -3.043339 -11.306324 1.880790849211783e-38 1700951363
-0.940218 -2.875880 -11.107471 1.880790849211783e-38 1700951363
-0.969914 -2.830377 -11.458293 1.880790849211783e-38 1700951363
-1.017890 -2.200707 -12.025071 1.880790849211783e-38 1700951363
-1.013199 -2.082520 -11.969646 1.880790849211783e-38 1700951363
-0.954728 -2.661113 -11.278884 1.880790849211783e-38 1700951363
-0.959863 -2.605640 -11.339556 1.880790849211783e-38 1700951363
-1.038905 -2.034643 -12.273330 1.880790849211783e-38 1700951363
-1.037786 -1.924301 -12.260109 1.880790849211783e-38 1700951363
-0.985632 -2.563322 -11.643978 1.880790849211783e-38 1700951363
-0.981531 -2.467021 -11.595537 1.880790849211783e-38 1700951363
-1.105336 -1.897531 -12.605655 1.880790849211783e-38 1700951363
-1.090659 -1.790660 -12.438273 1.880790849211783e-38 1700951363
-1.115280 -1.760615 -12.719059 1.880790849211783e-38 1700951363
-1.105661 -1.672982 -12.609359 1.880790849211783e-38 1700951363
-1.034799 -2.378246 -11.801222 1.880790849211783e-38 1700951363
-1.050468 -2.288887 -11.979922 1.880790849211783e-38 1700951363
-1.023854 -3.452856 -11.676410 1.880790849211783e-38 1700951363
-1.007990 -3.312076 -11.495485 1.880790849211783e-38 1700951363
-1.017241 -3.228208 -11.600989 1.880790849211783e-38 1700951363
-0.993446 -3.050401 -11.329618 1.880790849211783e-38 1700951363
-0.978790 -2.890874 -11.162482 1.880790849211783e-38 1700951363
-0.994781 -2.803080 -11.344840 1.880790849211783e-38 1700951363
-1.052099 -2.196418 -11.998517 1.880790849211783e-38 1700951363
-1.070737 -2.125076 -12.211069 1.880790849211783e-38 1700951363
-0.988677 -2.660943 -11.275232 1.880790849211783e-38 1700951363
-0.998824 -2.618130 -11.390952 1.880790849211783e-38 1700951363
-1.065631 -2.015192 -12.152839 1.880790849211783e-38 1700951363
-1.084270 -1.941332 -12.365402 1.880790849211783e-38 1700951363
-1.004491 -2.522504 -11.455585 1.880790849211783e-38 1700951363
-1.037589 -2.518206 -11.833040 1.880790849211783e-38 1700951363
-1.132987 -1.880338 -12.488080 1.880790849211783e-38 1700951363
-1.148056 -1.822232 -12.654173 1.880790849211783e-38 1700951363
-1.146505 -1.749737 -12.637073 1.880790849211783e-38 1700951363
-1.162268 -1.700168 -12.810822 1.880790849211783e-38 1700951363
-1.056769 -2.347997 -11.647986 1.880790849211783e-38 1700951363
-1.085499 -2.286584 -11.964650 1.880790849211783e-38 1700951363
-1.052306 -3.430824 -11.598785 1.880790849211783e-38 1700951363
-1.033228 -3.282136 -11.388506 1.880790849211783e-38 1700951363
-1.048887 -3.217975 -11.561102 1.880790849211783e-38 1700951363
-1.018733 -3.024053 -11.228738 1.880790849211783e-38 1700951363
-1.006920 -2.875087 -11.098536 1.880790849211783e-38 1700951363
-1.044756 -2.846032 -11.515576 1.880790849211783e-38 1700951363
-1.091710 -2.203343 -12.033110 1.880790849211783e-38 1700951363
-1.092008 -2.095240 -12.036391 1.880790849211783e-38 1700951363
-1.029933 -2.679825 -11.352186 1.880790849211783e-38 1700951363
-1.039580 -2.634370 -11.458525 1.880790849211783e-38 1700951363
-1.097029 -2.005599 -12.091735 1.880790849211783e-38 1700951363
-1.130911 -1.957526 -12.465194 1.880790849211783e-38 1700951363
-1.037029 -2.517635 -11.430399 1.880790849211783e-38 1700951363
-1.087113 -2.550686 -11.982441 1.880790849211783e-38 1700951363
-1.193044 -1.916315 -12.723478 1.880790849211783e-38 1700951363
-1.189005 -1.826516 -12.680394 1.880790849211783e-38 1700951363
-1.195865 -1.766357 -12.753562 1.880790849211783e-38 1700951363
-1.093427 -2.351292 -11.661090 1.880790849211783e-38 1700951363
-1.122024 -2.287491 -11.966069 1.880790849211783e-38 1700951363
-1.079287 -3.318156 -11.510286 1.880790849211783e-38 1700951363
-1.080239 -3.207549 -11.520442 1.880790849211783e-38 1700951363
-1.039127 -2.985363 -11.081990 1.880790849211783e-38 1700951363
-1.058181 -2.924255 -11.285198 1.880790849211783e-38 1700951363
-1.059119 -2.792344 -11.295204 1.880790849211783e-38 1700951363
-1.139917 -2.226628 -12.156894 1.880790849211783e-38 1700951363
-1.145731 -2.127601 -12.218890 1.880790849211783e-38 1700951363
-1.064560 -2.680817 -11.353230 1.880790849211783e-38 1700951363
-1.063661 -2.608682 -11.343637 1.880790849211783e-38 1700951363
-1.137596 -2.012861 -12.132141 1.880790849211783e-38 1700951363
-1.157018 -1.938289 -12.339265 1.880790849211783e-38 1700951363
-1.100034 -2.584684 -11.731547 1.880790849211783e-38 1700951363
-1.096428 -2.489786 -11.693095 1.880790849211783e-38 1700951363
-1.228735 -1.912148 -12.692164 1.880790849211783e-38 1700951363
-1.227226 -1.826491 -12.676576 1.880790849211783e-38 1700951363
-1.223962 -1.751528 -12.642855 1.880790849211783e-38 1700951363
-1.145843 -2.387233 -11.835931 1.880790849211783e-38 1700951363
-1.169972 -2.310923 -12.085170 1.880790849211783e-38 1700951363
-1.104725 -3.290538 -11.411203 1.880790849211783e-38 1700951363
-1.092841 -3.143862 -11.288453 1.880790849211783e-38 1700951363
-1.104305 -3.073765 -11.406870 1.880790849211783e-38 1700951363
-1.067020 -2.856807 -11.021733 1.880790849211783e-38 1700951363
-1.104405 -2.821014 -11.407899 1.880790849211783e-38 1700951363
-1.172652 -2.219200 -12.112860 1.880790849211783e-38 1700951363
-1.182043 -2.126640 -12.209862 1.880790849211783e-38 1700951363
-1.108809 -2.705246 -11.453397 1.880790849211783e-38 1700951363
-1.120832 -2.663249 -11.577588 1.880790849211783e-38 1700951363
-1.201639 -2.059931 -12.412278 1.880790849211783e-38 1700951363
-1.190525 -1.932279 -12.297473 1.880790849211783e-38 1700951363
-1.135196 -2.584196 -11.725959 1.880790849211783e-38 1700951363
-1.135654 -2.498508 -11.730685 1.880790849211783e-38 1700951363
-1.281450 -1.933943 -12.833022 1.880790849211783e-38 1700951363
-1.275846 -1.841493 -12.776903 1.880790849211783e-38 1700951363
-1.282426 -1.779755 -12.842793 1.880790849211783e-38 1700951363
-1.182424 -2.389029 -11.841326 1.880790849211783e-38 1700951363
-1.228564 -2.353350 -12.303393 1.880790849211783e-38 1700951363
-1.138524 -3.288771 -11.401695 1.880790849211783e-38 1700951363
-1.143430 -3.190028 -11.450824 1.880790849211783e-38 1700951363
-1.120303 -3.024096 -11.219219 1.880790849211783e-38 1700951363
-1.123339 -2.916739 -11.249619 1.880790849211783e-38 1700951363
-1.144677 -2.835557 -11.463307 1.880790849211783e-38 1700951363
-1.232820 -2.262589 -12.346020 1.880790849211783e-38 1700951363
-1.233133 -2.151538 -12.349150 1.880790849211783e-38 1700951363
-1.126335 -2.664992 -11.279622 1.880790849211783e-38 1700951363
-1.145219 -2.638994 -11.468743 1.880790849211783e-38 1700951363
-1.234866 -2.052943 -12.366500 1.880790849211783e-38 1700951363
-1.257963 -1.980057 -12.597806 1.880790849211783e-38 1700951363
-1.165435 -2.572889 -11.671193 1.880790849211783e-38 1700951363
-1.172771 -2.502225 -11.744654 1.880790849211783e-38 1700951363
-1.228987 -2.410325 -11.943226 1.880790849211783e-38 1700951363
-1.264202 -2.350633 -12.285436 1.880790849211783e-38 1700951363
-1.192011 -3.228087 -11.583898 1.880790849211783e-38 1700951363
-1.145184 -3.000649 -11.128827 1.880790849211783e-38 1700951363
-1.174696 -2.960685 -11.415627 1.880790849211783e-38 1700951363
-1.199711 -2.884776 -11.658720 1.880790849211783e-38 1700951363
-1.277040 -2.275047 -12.410204 1.880790849211783e-38 1700951363
-1.262099 -2.137532 -12.265005 1.880790849211783e-38 1700951363
-1.176297 -2.701627 -11.431185 1.880790849211783e-38 1700951363
-1.184020 -2.648431 -11.506238 1.880790849211783e-38 1700951363
-1.272713 -2.053843 -12.368146 1.880790849211783e-38 1700951363
-1.284618 -1.962745 -12.483843 1.880790849211783e-38 1700951363
-1.221427 -2.617462 -11.869756 1.880790849211783e-38 1700951363
-1.207948 -2.501736 -11.738768 1.880790849211783e-38 1700951363
-1.277597 -2.434322 -12.058337 1.880790849211783e-38 1700951363
-1.304637 -2.356755 -12.313550 1.880790849211783e-38 1700951363
-1.214662 -3.195777 -11.464341 1.880790849211783e-38 1700951363
-1.223468 -3.114502 -11.547448 1.880790849211783e-38 1700951363
-1.190495 -2.915079 -11.236242 1.880790849211783e-38 1700951363
-1.224342 -2.860188 -11.555706 1.880790849211783e-38 1700951363
-1.308417 -2.264581 -12.349225 1.880790849211783e-38 1700951363
-1.299461 -2.138151 -12.264698 1.880790849211783e-38 1700951363
-1.231344 -2.747540 -11.621792 1.880790849211783e-38 1700951363
-1.242519 -2.700154 -11.727258 1.880790849211783e-38 1700951363
-1.246330 -2.594788 -11.763227 1.880790849211783e-38 1700951363
-1.272728 -2.560855 -12.012384 1.880790849211783e-38 1700951363
-1.313130 -2.432786 -12.046823 1.880790849211783e-38 1700951363
-1.352795 -2.376122 -12.410717 1.880790849211783e-38 1700951363
-1.248931 -3.195004 -11.457855 1.880790849211783e-38 1700951363
-1.236383 -3.060280 -11.342738 1.880790849211783e-38 1700951363
-1.241071 -2.954823 -11.385742 1.880790849211783e-38 1700951363
-1.269368 -2.883309 -11.645345 1.880790849211783e-38 1700951363
-1.265966 -2.746619 -11.614134 1.880790849211783e-38 1700951363
-1.272988 -2.689813 -11.678557 1.880790849211783e-38 1700951363
-1.295146 -2.621800 -11.881832 1.880790849211783e-38 1700951363
-1.304341 -2.551834 -11.966191 1.880790849211783e-38 1700951363
-1.300243 -3.236735 -11.603640 1.880790849211783e-38 1700951363
-1.255630 -3.024261 -11.205498 1.880790849211783e-38 1700951363
-1.290770 -2.990427 -11.519095 1.880790849211783e-38 1700951363
-1.320935 -2.919676 -11.788299 1.880790849211783e-38 1700951363
-1.321468 -2.789861 -11.793049 1.880790849211783e-38 1700951363
-1.327743 -2.729990 -11.849050 1.880790849211783e-38 1700951363
-1.359819 -2.678624 -12.135307 1.880790849211783e-38 1700951363
-1.368104 -2.604533 -12.209239 1.880790849211783e-38 1700951363
-1.316701 -3.191810 -11.438663 1.880790849211783e-38 1700951363
-1.303217 -3.056621 -11.321521 1.880790849211783e-38 1700951363
-1.302653 -2.938870 -11.316624 1.880790849211783e-38 1700951363
-1.360801 -2.928971 -11.821774 1.880790849211783e-38 1700951363
-1.345387 -2.765926 -11.687868 1.880790849211783e-38 1700951363
-1.354302 -2.711628 -11.765320 1.880790849211783e-38 1700951363
-1.355309 -3.201532 -11.469470 1.880790849211783e-38 1700951363
-1.333712 -3.048293 -11.286701 1.880790849211783e-38 1700951363
-1.335808 -2.936738 -11.304437 1.880790849211783e-38 1700951363
-1.374757 -2.883472 -11.634045 1.880790849211783e-38 1700951363
-1.384291 -3.085164 -11.419097 1.880790849211783e-38 1700951363
-1.395469 -2.991561 -11.511310 1.880790849211783e-38 1700951363
1.385099 -3.362590 -11.330444 1.880790849211783e-38 1700951363
1.405489 -3.324484 -11.497234 1.880790849211783e-38 1700951363
1.423400 -3.251751 -11.643751 1.880790849211783e-38 1700951363
1.450277 -2.460117 -12.168195 1.880790849211783e-38 1700951363
1.494882 -2.404098 -12.542446 1.880790849211783e-38 1700951363
1.348943 -3.357666 -11.317974 1.880790849211783e-38 1700951363
1.344733 -3.261249 -11.282653 1.880790849211783e-38 1700951363
1.364224 -3.195414 -11.446188 1.880790849211783e-38 1700951363
1.385347 -3.139606 -11.623416 1.880790849211783e-38 1700951363
1.403155 -3.058786 -11.772832 1.880790849211783e-38 1700951363
1.419871 -2.952985 -11.913086 1.880790849211783e-38 1700951363
1.501279 -2.313257 -12.596119 1.880790849211783e-38 1700951363
1.518084 -2.223778 -12.737112 1.880790849211783e-38 1700951363
1.405233 -2.791472 -11.790265 1.880790849211783e-38 1700951363
1.426753 -2.760292 -11.970825 1.880790849211783e-38 1700951363
1.501071 -2.095148 -12.594368 1.880790849211783e-38 1700951363
1.539843 -2.034900 -12.919679 1.880790849211783e-38 1700951363
1.468790 -2.722383 -12.323524 1.880790849211783e-38 1700951363
1.472627 -2.637926 -12.355717 1.880790849211783e-38 1700951363
1.418975 -2.469516 -12.219022 1.880790849211783e-38 1700951363
1.466746 -2.420096 -12.630389 1.880790849211783e-38 1700951363
1.324419 -3.382219 -11.404782 1.880790849211783e-38 1700951363
1.318031 -3.279487 -11.349777 1.880790849211783e-38 1700951363
1.347199 -3.237469 -11.600948 1.880790849211783e-38 1700951363
1.330584 -3.093794 -11.457874 1.880790849211783e-38 1700951363
1.359654 -3.040913 -11.708197 1.880790849211783e-38 1700951363
1.372763 -2.929140 -11.821085 1.880790849211783e-38 1700951363
1.456171 -2.302010 -12.539325 1.880790849211783e-38 1700951363
1.452566 -2.183052 -12.508283 1.880790849211783e-38 1700951363
1.390303 -2.833524 -11.972122 1.880790849211783e-38 1700951363
1.373658 -2.726573 -11.828788 1.880790849211783e-38 1700951363
1.451700 -2.078849 -12.500823 1.880790849211783e-38 1700951363
1.476829 -2.002300 -12.717215 1.880790849211783e-38 1700951363
1.413979 -2.688839 -12.175999 1.880790849211783e-38 1700951363
1.440458 -2.647298 -12.404016 1.880790849211783e-38 1700951363
1.349424 -2.411104 -11.934124 1.880790849211783e-38 1700951363
1.387178 -2.349850 -12.268015 1.880790849211783e-38 1700951363
1.293009 -3.390065 -11.435191 1.880790849211783e-38 1700951363
1.268094 -3.239382 -11.214854 1.880790849211783e-38 1700951363
1.310871 -3.234180 -11.593167 1.880790849211783e-38 1700951363
1.301694 -3.107335 -11.512003 1.880790849211783e-38 1700951363
1.320772 -3.032731 -11.680731 1.880790849211783e-38 1700951363
1.322832 -2.897873 -11.698945 1.880790849211783e-38 1700951363
1.418476 -2.302220 -12.544807 1.880790849211783e-38 1700951363
1.426406 -2.200905 -12.614938 1.880790849211783e-38 1700951363
1.344405 -2.813052 -11.889736 1.880790849211783e-38 1700951363
1.329365 -2.709024 -11.756721 1.880790849211783e-38 1700951363
1.410207 -2.073285 -12.471679 1.880790849211783e-38 1700951363
1.435957 -1.998806 -12.699409 1.880790849211783e-38 1700951363
1.358622 -2.652471 -12.015465 1.880790849211783e-38 1700951363
1.363833 -2.573319 -12.061551 1.880790849211783e-38 1700951363
1.409949 -1.933338 -12.815481 1.880790849211783e-38 1700951363
1.321887 -2.426638 -12.015054 1.880790849211783e-38 1700951363
1.352022 -2.353070 -12.288960 1.880790849211783e-38 1700951363
1.248682 -3.363580 -11.349669 1.880790849211783e-38 1700951363
1.218543 -3.198121 -11.075732 1.880790849211783e-38 1700951363
1.247127 -3.161243 -11.335533 1.880790849211783e-38 1700951363
1.253325 -3.073875 -11.391871 1.880790849211783e-38 1700951363
