# .PCD v0.7 - Point Cloud Data file format
VERSION 0.7
FIELDS x y z rgb label
SIZE 4 4 4 4 4
TYPE F F F F U
COUNT 1 1 1 1 1
WIDTH 736
HEIGHT 1
VIEWPOINT 0 0 0 1 0 0 0
POINTS 736
DATA ascii
-0.227055 -2.528660 -10.753425 1.880790849211783e-38 1700951363
-0.223367 -2.422690 -10.578718 1.880790849211783e-38 1700951363
-0.236844 -1.853319 -11.217032 1.880790849211783e-38 1700951363
-0.240519 -1.781922 -11.391042 1.880790849211783e-38 1700951363
-0.226753 -2.356225 -10.739120 1.880790849211783e-38 1700951363
-0.229143 -2.301177 -10.852292 1.880790849211783e-38 1700951363
-0.284674 -1.472772 -11.796519 1.880790849211783e-38 1700951363
-0.287038 -1.424199 -11.894477 1.880790849211783e-38 1700951363
-0.286569 -1.351455 -11.875038 1.880790849211783e-38 1700951363
-0.289952 -1.283879 -12.015238 1.880790849211783e-38 1700951363
-0.280116 -1.741131 -11.607663 1.880790849211783e-38 1700951363
-0.279367 -1.660727 -11.576622 1.880790849211783e-38 1700951363
-0.293758 -1.245971 -12.172941 1.880790849211783e-38 1700951363
-0.282307 -1.613615 -11.698425 1.880790849211783e-38 1700951363
-0.280830 -1.538546 -11.637218 1.880790849211783e-38 1700951363
-0.262417 -2.183694 -10.874237 1.880790849211783e-38 1700951363
-0.269250 -2.124202 -11.157386 1.880790849211783e-38 1700951363
-0.278423 -3.399724 -11.537489 1.880790849211783e-38 1700951363
-0.273431 -3.253047 -11.330631 1.880790849211783e-38 1700951363
-0.271830 -3.123448 -11.264308 1.880790849211783e-38 1700951363
-0.268529 -2.985395 -11.127482 1.880790849211783e-38 1700951363
-0.291537 -3.962500 -12.080906 1.880790849211783e-38 1700951363
-0.264430 -2.827801 -10.957644 1.880790849211783e-38 1700951363
-0.265109 -2.704780 -10.985795 1.880790849211783e-38 1700951363
-0.284988 -3.745514 -11.809548 1.880790849211783e-38 1700951363
-0.286633 -3.631126 -11.877713 1.880790849211783e-38 1700951363
-0.271689 -2.053663 -11.258451 1.880790849211783e-38 1700951363
-0.272104 -1.955352 -11.275636 1.880790849211783e-38 1700951363
-0.257862 -2.512854 -10.685479 1.880790849211783e-38 1700951363
-0.256955 -2.438702 -10.647907 1.880790849211783e-38 1700951363
-0.270602 -1.852848 -11.213418 1.880790849211783e-38 1700951363
-0.274639 -1.780426 -11.380707 1.880790849211783e-38 1700951363
-0.261485 -2.377554 -10.835592 1.880790849211783e-38 1700951363
-0.261887 -2.301331 -10.852278 1.880790849211783e-38 1700951363
-0.324380 -1.491763 -11.947711 1.880790849211783e-38 1700951363
-0.323870 -1.428431 -11.928903 1.880790849211783e-38 1700951363
-0.325441 -1.364278 -11.986784 1.880790849211783e-38 1700951363
-0.330555 -1.301065 -12.175135 1.880790849211783e-38 1700951363
-0.315092 -1.740957 -11.605602 1.880790849211783e-38 1700951363
-0.315289 -1.666052 -11.612846 1.880790849211783e-38 1700951363
-0.330958 -1.247811 -12.189974 1.880790849211783e-38 1700951363
-0.318380 -1.617639 -11.726689 1.880790849211783e-38 1700951363
-0.319691 -1.556880 -11.774982 1.880790849211783e-38 1700951363
-0.296458 -2.192908 -10.919277 1.880790849211783e-38 1700951363
-0.304496 -2.135397 -11.215318 1.880790849211783e-38 1700951363
-0.313164 -3.399128 -11.534576 1.880790849211783e-38 1700951363
-0.307686 -3.253930 -11.332830 1.880790849211783e-38 1700951363
-0.306356 -3.129102 -11.283828 1.880790849211783e-38 1700951363
-0.301636 -2.980936 -11.110001 1.880790849211783e-38 1700951363
-0.326911 -3.949697 -12.040940 1.880790849211783e-38 1700951363
-0.299089 -2.843121 -11.016155 1.880790849211783e-38 1700951363
-0.297954 -2.702174 -10.974362 1.880790849211783e-38 1700951363
-0.321547 -3.756526 -11.843354 1.880790849211783e-38 1700951363
-0.323865 -3.647002 -11.928723 1.880790849211783e-38 1700951363
-0.305882 -2.055268 -11.266375 1.880790849211783e-38 1700951363
-0.306172 -1.955747 -11.277040 1.880790849211783e-38 1700951363
-0.289936 -2.511534 -10.679042 1.880790849211783e-38 1700951363
-0.289950 -2.446136 -10.679543 1.880790849211783e-38 1700951363
-0.307120 -1.869279 -11.311983 1.880790849211783e-38 1700951363
-0.310652 -1.790165 -11.442075 1.880790849211783e-38 1700951363
-0.294875 -2.383301 -10.860941 1.880790849211783e-38 1700951363
-0.297867 -2.326723 -10.971170 1.880790849211783e-38 1700951363
-0.360402 -1.491716 -11.946301 1.880790849211783e-38 1700951363
-0.364378 -1.446423 -12.078110 1.880790849211783e-38 1700951363
-0.361414 -1.363606 -11.979849 1.880790849211783e-38 1700951363
-0.368866 -1.306708 -12.226880 1.880790849211783e-38 1700951363
-0.349378 -1.737399 -11.580886 1.880790849211783e-38 1700951363
-0.354028 -1.683729 -11.735044 1.880790849211783e-38 1700951363
-0.371866 -1.261875 -12.326303 1.880790849211783e-38 1700951363
-0.353822 -1.617987 -11.728198 1.880790849211783e-38 1700951363
-0.356825 -1.563993 -11.827757 1.880790849211783e-38 1700951363
-0.330869 -2.202759 -10.967377 1.880790849211783e-38 1700951363
-0.338456 -2.136260 -11.218879 1.880790849211783e-38 1700951363
-0.348271 -3.402260 -11.544204 1.880790849211783e-38 1700951363
-0.340261 -3.238662 -11.278680 1.880790849211783e-38 1700951363
-0.339924 -3.124854 -11.267531 1.880790849211783e-38 1700951363
-0.338113 -3.007358 -11.207510 1.880790849211783e-38 1700951363
-0.365294 -3.972186 -12.108455 1.880790849211783e-38 1700951363
-0.333473 -2.853057 -11.053701 1.880790849211783e-38 1700951363
-0.329799 -2.691951 -10.931900 1.880790849211783e-38 1700951363
-0.357407 -3.758014 -11.847022 1.880790849211783e-38 1700951363
-0.358523 -3.633651 -11.884027 1.880790849211783e-38 1700951363
-0.338214 -2.045315 -11.210851 1.880790849211783e-38 1700951363
-0.343215 -1.973188 -11.376626 1.880790849211783e-38 1700951363
-0.321684 -2.507962 -10.662930 1.880790849211783e-38 1700951363
-0.325785 -2.473679 -10.798857 1.880790849211783e-38 1700951363
-0.340784 -1.866806 -11.296038 1.880790849211783e-38 1700951363
-0.347404 -1.801805 -11.515478 1.880790849211783e-38 1700951363
-0.328793 -2.391761 -10.898554 1.880790849211783e-38 1700951363
-0.330937 -2.326599 -10.969638 1.880790849211783e-38 1700951363
-0.396799 -1.493105 -11.956285 1.880790849211783e-38 1700951363
-0.398742 -1.438982 -12.014823 1.880790849211783e-38 1700951363
-0.397729 -1.364242 -11.984293 1.880790849211783e-38 1700951363
-0.406203 -1.308197 -12.239652 1.880790849211783e-38 1700951363
-0.386662 -1.748060 -11.650838 1.880790849211783e-38 1700951363
-0.390121 -1.686762 -11.755060 1.880790849211783e-38 1700951363
-0.409763 -1.264104 -12.346901 1.880790849211783e-38 1700951363
-0.390308 -1.622627 -11.760710 1.880790849211783e-38 1700951363
-0.393218 -1.566870 -11.848381 1.880790849211783e-38 1700951363
-0.363099 -2.197639 -10.940841 1.880790849211783e-38 1700951363
-0.374569 -2.149334 -11.286461 1.880790849211783e-38 1700951363
-0.383512 -3.406034 -11.555908 1.880790849211783e-38 1700951363
-0.377173 -3.263733 -11.364907 1.880790849211783e-38 1700951363
-0.375619 -3.139171 -11.318077 1.880790849211783e-38 1700951363
-0.369952 -2.991497 -11.147335 1.880790849211783e-38 1700951363
-0.400345 -3.957692 -12.063117 1.880790849211783e-38 1700951363
-0.366706 -2.852250 -11.049518 1.880790849211783e-38 1700951363
-0.364570 -2.705328 -10.985172 1.880790849211783e-38 1700951363
-0.393581 -3.762271 -11.859308 1.880790849211783e-38 1700951363
-0.394389 -3.633888 -11.883665 1.880790849211783e-38 1700951363
-0.374859 -2.060897 -11.295180 1.880790849211783e-38 1700951363
-0.376927 -1.970062 -11.357514 1.880790849211783e-38 1700951363
-0.354801 -2.514759 -10.690807 1.880790849211783e-38 1700951363
-0.357544 -2.468095 -10.773449 1.880790849211783e-38 1700951363
-0.377236 -1.878682 -11.366817 1.880790849211783e-38 1700951363
-0.381594 -1.799265 -11.498142 1.880790849211783e-38 1700951363
-0.363370 -2.403065 -10.949018 1.880790849211783e-38 1700951363
-0.365496 -2.336033 -11.013066 1.880790849211783e-38 1700951363
-0.438533 -1.512692 -12.111863 1.880790849211783e-38 1700951363
-0.435788 -1.441676 -12.036062 1.880790849211783e-38 1700951363
-0.433393 -1.362746 -11.969899 1.880790849211783e-38 1700951363
-0.442956 -1.307733 -12.234023 1.880790849211783e-38 1700951363
-0.424164 -1.757872 -11.715007 1.880790849211783e-38 1700951363
-0.425362 -1.685940 -11.748101 1.880790849211783e-38 1700951363
-0.431950 -1.646163 -11.930046 1.880790849211783e-38 1700951363
-0.432641 -1.580361 -11.949144 1.880790849211783e-38 1700951363
-0.399068 -2.214151 -11.021894 1.880790849211783e-38 1700951363
-0.410801 -2.160885 -11.345929 1.880790849211783e-38 1700951363
-0.418741 -3.409142 -11.565241 1.880790849211783e-38 1700951363
-0.414200 -3.285585 -11.439799 1.880790849211783e-38 1700951363
-0.410553 -3.145330 -11.339094 1.880790849211783e-38 1700951363
-0.404169 -2.995951 -11.162765 1.880790849211783e-38 1700951363
-0.439496 -3.982833 -12.138477 1.880790849211783e-38 1700951363
-0.398417 -2.840772 -11.003903 1.880790849211783e-38 1700951363
-0.395780 -2.692289 -10.931084 1.880790849211783e-38 1700951363
-0.430355 -3.771137 -11.886012 1.880790849211783e-38 1700951363
-0.428635 -3.620454 -11.838496 1.880790849211783e-38 1700951363
-0.411215 -2.072464 -11.357384 1.880790849211783e-38 1700951363
-0.413849 -1.982862 -11.430111 1.880790849211783e-38 1700951363
-0.390104 -2.534662 -10.774294 1.880790849211783e-38 1700951363
-0.389919 -2.467376 -10.769185 1.880790849211783e-38 1700951363
-0.410068 -1.872081 -11.325691 1.880790849211783e-38 1700951363
-0.419158 -1.811757 -11.576762 1.880790849211783e-38 1700951363
-0.394928 -2.394212 -10.907542 1.880790849211783e-38 1700951363
-0.398502 -2.334831 -11.006250 1.880790849211783e-38 1700951363
-0.472937 -1.505931 -12.056355 1.880790849211783e-38 1700951363
-0.477617 -1.458564 -12.175665 1.880790849211783e-38 1700951363
-0.477238 -1.385230 -12.166003 1.880790849211783e-38 1700951363
-0.482748 -1.315627 -12.306476 1.880790849211783e-38 1700951363
-0.462138 -1.767984 -11.781058 1.880790849211783e-38 1700951363
-0.464124 -1.698129 -11.831693 1.880790849211783e-38 1700951363
-0.467712 -1.645400 -11.923162 1.880790849211783e-38 1700951363
-0.469743 -1.583951 -11.974930 1.880790849211783e-38 1700951363
-0.432812 -2.216732 -11.033482 1.880790849211783e-38 1700951363
-0.446816 -2.169617 -11.390480 1.880790849211783e-38 1700951363
-0.453545 -3.408578 -11.562013 1.880790849211783e-38 1700951363
-0.447673 -3.278067 -11.412325 1.880790849211783e-38 1700951363
-0.445694 -3.152004 -11.361863 1.880790849211783e-38 1700951363
-0.436168 -2.984551 -11.119023 1.880790849211783e-38 1700951363
-0.432505 -2.846709 -11.025643 1.880790849211783e-38 1700951363
-0.429333 -2.695971 -10.944789 1.880790849211783e-38 1700951363
-0.465619 -3.766426 -11.869814 1.880790849211783e-38 1700951363
-0.464536 -3.621999 -11.842200 1.880790849211783e-38 1700951363
-0.445373 -2.072024 -11.353683 1.880790849211783e-38 1700951363
-0.446767 -1.975992 -11.389215 1.880790849211783e-38 1700951363
-0.420037 -2.519307 -10.707805 1.880790849211783e-38 1700951363
-0.426247 -2.489868 -10.866118 1.880790849211783e-38 1700951363
-0.448723 -1.891038 -11.439075 1.880790849211783e-38 1700951363
-0.454249 -1.812462 -11.579950 1.880790849211783e-38 1700951363
-0.431453 -2.414522 -10.998818 1.880790849211783e-38 1700951363
-0.435964 -2.357923 -11.113836 1.880790849211783e-38 1700951363
-0.511271 -1.511770 -12.101612 1.880790849211783e-38 1700951363
-0.515675 -1.462358 -12.205842 1.880790849211783e-38 1700951363
-0.511650 -1.379089 -12.110584 1.880790849211783e-38 1700951363
-0.520207 -1.316498 -12.313113 1.880790849211783e-38 1700951363
-0.495390 -1.759894 -11.725710 1.880790849211783e-38 1700951363
-0.501177 -1.702787 -11.862689 1.880790849211783e-38 1700951363
-0.506217 -1.653720 -11.981977 1.880790849211783e-38 1700951363
-0.505921 -1.584153 -11.974983 1.880790849211783e-38 1700951363
-0.465575 -2.214298 -11.020012 1.880790849211783e-38 1700951363
-0.479218 -2.160826 -11.342937 1.880790849211783e-38 1700951363
-0.488599 -3.409873 -11.564983 1.880790849211783e-38 1700951363
-0.480154 -3.264901 -11.365091 1.880790849211783e-38 1700951363
-0.477828 -3.138011 -11.310034 1.880790849211783e-38 1700951363
-0.473973 -3.011698 -11.218783 1.880790849211783e-38 1700951363
-0.463359 -2.832058 -10.967551 1.880790849211783e-38 1700951363
-0.464121 -2.706352 -10.985579 1.880790849211783e-38 1700951363
-0.501027 -3.763499 -11.859133 1.880790849211783e-38 1700951363
-0.500511 -3.623893 -11.846936 1.880790849211783e-38 1700951363
-0.483269 -2.087816 -11.438808 1.880790849211783e-38 1700951363
-0.485154 -1.992582 -11.483422 1.880790849211783e-38 1700951363
-0.457321 -2.547105 -10.824624 1.880790849211783e-38 1700951363
-0.461258 -2.502023 -10.917825 1.880790849211783e-38 1700951363
-0.482564 -1.888469 -11.422134 1.880790849211783e-38 1700951363
-0.493569 -1.828754 -11.682605 1.880790849211783e-38 1700951363
-0.464534 -2.414060 -10.995360 1.880790849211783e-38 1700951363
-0.468998 -2.355493 -11.101021 1.880790849211783e-38 1700951363
-0.549322 -1.516060 -12.134356 1.880790849211783e-38 1700951363
-0.553337 -1.464615 -12.223063 1.880790849211783e-38 1700951363
-0.552541 -1.390078 -12.205468 1.880790849211783e-38 1700951363
-0.536051 -1.777464 -11.841207 1.880790849211783e-38 1700951363
-0.539378 -1.710478 -11.914699 1.880790849211783e-38 1700951363
-0.544908 -1.661515 -12.036868 1.880790849211783e-38 1700951363
-0.547553 -1.600278 -12.095284 1.880790849211783e-38 1700951363
-0.504541 -2.239742 -11.145173 1.880790849211783e-38 1700951363
-0.516998 -2.175856 -11.420325 1.880790849211783e-38 1700951363
-0.521535 -3.397220 -11.520551 1.880790849211783e-38 1700951363
-0.514619 -3.266104 -11.367778 1.880790849211783e-38 1700951363
-0.513601 -3.148212 -11.345303 1.880790849211783e-38 1700951363
-0.508147 -3.013716 -11.224816 1.880790849211783e-38 1700951363
-0.500392 -2.854632 -11.053514 1.880790849211783e-38 1700951363
-0.498293 -2.712021 -11.007142 1.880790849211783e-38 1700951363
-0.534830 -3.749750 -11.814247 1.880790849211783e-38 1700951363
-0.535671 -3.620052 -11.832820 1.880790849211783e-38 1700951363
-0.522538 -2.107059 -11.542715 1.880790849211783e-38 1700951363
-0.523226 -2.005771 -11.557907 1.880790849211783e-38 1700951363
-0.488685 -2.540450 -10.794918 1.880790849211783e-38 1700951363
-0.494943 -2.505867 -10.933156 1.880790849211783e-38 1700951363
-0.523442 -1.911958 -11.562676 1.880790849211783e-38 1700951363
-0.528674 -1.828315 -11.678261 1.880790849211783e-38 1700951363
-0.499620 -2.423402 -11.036454 1.880790849211783e-38 1700951363
-0.502540 -2.355791 -11.100962 1.880790849211783e-38 1700951363
-0.587065 -1.519039 -12.156484 1.880790849211783e-38 1700951363
-0.592093 -1.469321 -12.260607 1.880790849211783e-38 1700951363
-0.592748 -1.398100 -12.274179 1.880790849211783e-38 1700951363
-0.573827 -1.783893 -11.882364 1.880790849211783e-38 1700951363
-0.577246 -1.716241 -11.953157 1.880790849211783e-38 1700951363
-0.580600 -1.659783 -12.022622 1.880790849211783e-38 1700951363
-0.580478 -1.590554 -12.020088 1.880790849211783e-38 1700951363
-0.535770 -2.229837 -11.094322 1.880790849211783e-38 1700951363
-0.549371 -2.167707 -11.375950 1.880790849211783e-38 1700951363
-0.560599 -3.423623 -11.608449 1.880790849211783e-38 1700951363
-0.550717 -3.276920 -11.403818 1.880790849211783e-38 1700951363
-0.547395 -3.145805 -11.335029 1.880790849211783e-38 1700951363
-0.541156 -3.009049 -11.205853 1.880790849211783e-38 1700951363
-0.537022 -2.872269 -11.120236 1.880790849211783e-38 1700951363
-0.531398 -2.711576 -11.003780 1.880790849211783e-38 1700951363
-0.572051 -3.760231 -11.845599 1.880790849211783e-38 1700951363
-0.573564 -3.634059 -11.876926 1.880790849211783e-38 1700951363
-0.556594 -2.104216 -11.525517 1.880790849211783e-38 1700951363
-0.556456 -1.999938 -11.522669 1.880790849211783e-38 1700951363
-0.522275 -2.545504 -10.814865 1.880790849211783e-38 1700951363
-0.524108 -2.487807 -10.852825 1.880790849211783e-38 1700951363
-0.556262 -1.904948 -11.518657 1.880790849211783e-38 1700951363
-0.564408 -1.829994 -11.687332 1.880790849211783e-38 1700951363
-0.540332 -2.457196 -11.188778 1.880790849211783e-38 1700951363
-0.541804 -2.381234 -11.219271 1.880790849211783e-38 1700951363
-0.625904 -1.524345 -12.197110 1.880790849211783e-38 1700951363
-0.633738 -1.480228 -12.349769 1.880790849211783e-38 1700951363
-0.631229 -1.401351 -12.300871 1.880790849211783e-38 1700951363
-0.613974 -1.796513 -11.964625 1.880790849211783e-38 1700951363
-0.618360 -1.730421 -12.050104 1.880790849211783e-38 1700951363
-0.617694 -1.662032 -12.037109 1.880790849211783e-38 1700951363
-0.618232 -1.594434 -12.047606 1.880790849211783e-38 1700951363
-0.575454 -2.254224 -11.213968 1.880790849211783e-38 1700951363
-0.586972 -2.179939 -11.438423 1.880790849211783e-38 1700951363
-0.599997 -3.448855 -11.692246 1.880790849211783e-38 1700951363
-0.586659 -3.285607 -11.432331 1.880790849211783e-38 1700951363
-0.579739 -3.135856 -11.297484 1.880790849211783e-38 1700951363
-0.577962 -3.024808 -11.262851 1.880790849211783e-38 1700951363
-0.561728 -2.827820 -10.946506 1.880790849211783e-38 1700951363
-0.564118 -2.709341 -10.993062 1.880790849211783e-38 1700951363
-0.609507 -3.770946 -11.877569 1.880790849211783e-38 1700951363
-0.611720 -3.648000 -11.920700 1.880790849211783e-38 1700951363
-0.592863 -2.109594 -11.553237 1.880790849211783e-38 1700951363
-0.594231 -2.010172 -11.579896 1.880790849211783e-38 1700951363
-0.557048 -2.555406 -10.855304 1.880790849211783e-38 1700951363
-0.562533 -2.513254 -10.962191 1.880790849211783e-38 1700951363
-0.595267 -1.918700 -11.600070 1.880790849211783e-38 1700951363
-0.602991 -1.840177 -11.750603 1.880790849211783e-38 1700951363
-0.573420 -2.454393 -11.174335 1.880790849211783e-38 1700951363
-0.576398 -2.384373 -11.232373 1.880790849211783e-38 1700951363
-0.670020 -1.541211 -12.330104 1.880790849211783e-38 1700951363
-0.669797 -1.477615 -12.325999 1.880790849211783e-38 1700951363
-0.670520 -1.405952 -12.339293 1.880790849211783e-38 1700951363
-0.650807 -1.798587 -11.976529 1.880790849211783e-38 1700951363
-0.655891 -1.733566 -12.070083 1.880790849211783e-38 1700951363
-0.657872 -1.671886 -12.106546 1.880790849211783e-38 1700951363
-0.659627 -1.606766 -12.138849 1.880790849211783e-38 1700951363
-0.611945 -2.264112 -11.261368 1.880790849211783e-38 1700951363
-0.624976 -2.192245 -11.501165 1.880790849211783e-38 1700951363
-0.631141 -3.426502 -11.614616 1.880790849211783e-38 1700951363
-0.619069 -3.274673 -11.392467 1.880790849211783e-38 1700951363
-0.617813 -3.156307 -11.369348 1.880790849211783e-38 1700951363
-0.609788 -3.014232 -11.221683 1.880790849211783e-38 1700951363
-0.598393 -2.845185 -11.011969 1.880790849211783e-38 1700951363
-0.595885 -2.703057 -10.965816 1.880790849211783e-38 1700951363
-0.647171 -3.781722 -11.909614 1.880790849211783e-38 1700951363
-0.647128 -3.644947 -11.908825 1.880790849211783e-38 1700951363
-0.625310 -2.101546 -11.507327 1.880790849211783e-38 1700951363
-0.635110 -2.029205 -11.687675 1.880790849211783e-38 1700951363
-0.595063 -2.578274 -10.950703 1.880790849211783e-38 1700951363
-0.600818 -2.535304 -11.056603 1.880790849211783e-38 1700951363
-0.630508 -1.919486 -11.602969 1.880790849211783e-38 1700951363
-0.640739 -1.846836 -11.791247 1.880790849211783e-38 1700951363
-0.604899 -2.445420 -11.131707 1.880790849211783e-38 1700951363
-0.612824 -2.394342 -11.277537 1.880790849211783e-38 1700951363
-0.712765 -1.553335 -12.425003 1.880790849211783e-38 1700951363
-0.711542 -1.487178 -12.403688 1.880790849211783e-38 1700951363
-0.690597 -1.808209 -12.038569 1.880790849211783e-38 1700951363
-0.695045 -1.740469 -12.116103 1.880790849211783e-38 1700951363
-0.697949 -1.680481 -12.166732 1.880790849211783e-38 1700951363
-0.700307 -1.616171 -12.207842 1.880790849211783e-38 1700951363
-0.646912 -2.267648 -11.277055 1.880790849211783e-38 1700951363
-0.666267 -2.214211 -11.614448 1.880790849211783e-38 1700951363
-0.667920 -3.435533 -11.643267 1.880790849211783e-38 1700951363
-0.654676 -3.280953 -11.412396 1.880790849211783e-38 1700951363
-0.649476 -3.143620 -11.321742 1.880790849211783e-38 1700951363
-0.643794 -3.015014 -11.222702 1.880790849211783e-38 1700951363
-0.634785 -2.859536 -11.065650 1.880790849211783e-38 1700951363
-0.632703 -2.719179 -11.029362 1.880790849211783e-38 1700951363
-0.680545 -3.631640 -11.863348 1.880790849211783e-38 1700951363
-0.663909 -2.113957 -11.573338 1.880790849211783e-38 1700951363
-0.672406 -2.035413 -11.721456 1.880790849211783e-38 1700951363
-0.632018 -2.594417 -11.017411 1.880790849211783e-38 1700951363
-0.634103 -2.535081 -11.053769 1.880790849211783e-38 1700951363
-0.666105 -1.921240 -11.611619 1.880790849211783e-38 1700951363
-0.683469 -1.866428 -11.914323 1.880790849211783e-38 1700951363
-0.645492 -2.472327 -11.252298 1.880790849211783e-38 1700951363
-0.646219 -2.392076 -11.264963 1.880790849211783e-38 1700951363
-0.745624 -1.543786 -12.346434 1.880790849211783e-38 1700951363
-0.754383 -1.497970 -12.491480 1.880790849211783e-38 1700951363
-0.730771 -1.817832 -12.100492 1.880790849211783e-38 1700951363
-0.735566 -1.749943 -12.179893 1.880790849211783e-38 1700951363
-0.733912 -1.678814 -12.152508 1.880790849211783e-38 1700951363
-0.736742 -1.615337 -12.199375 1.880790849211783e-38 1700951363
-0.687139 -2.288356 -11.378013 1.880790849211783e-38 1700951363
-0.700675 -2.212260 -11.602151 1.880790849211783e-38 1700951363
-0.702103 -3.430989 -11.625800 1.880790849211783e-38 1700951363
-0.688900 -3.280034 -11.407173 1.880790849211783e-38 1700951363
-0.689811 -3.172093 -11.422259 1.880790849211783e-38 1700951363
-0.676611 -3.010442 -11.203694 1.880790849211783e-38 1700951363
-0.673767 -2.883548 -11.156589 1.880790849211783e-38 1700951363
-0.659778 -2.693918 -10.924957 1.880790849211783e-38 1700951363
-0.718736 -3.643876 -11.901207 1.880790849211783e-38 1700951363
-0.700141 -2.117981 -11.593309 1.880790849211783e-38 1700951363
-0.708384 -2.037224 -11.729804 1.880790849211783e-38 1700951363
-0.659155 -2.570671 -10.914633 1.880790849211783e-38 1700951363
-0.668654 -2.539697 -11.071930 1.880790849211783e-38 1700951363
-0.705775 -1.933989 -11.686599 1.880790849211783e-38 1700951363
-0.720561 -1.869439 -11.931431 1.880790849211783e-38 1700951363
-0.677300 -2.464590 -11.215090 1.880790849211783e-38 1700951363
-0.687413 -2.417474 -11.382550 1.880790849211783e-38 1700951363
-0.789234 -1.556363 -12.444689 1.880790849211783e-38 1700951363
-0.796776 -1.506902 -12.563612 1.880790849211783e-38 1700951363
-0.767177 -1.817631 -12.096892 1.880790849211783e-38 1700951363
-0.773816 -1.753385 -12.201575 1.880790849211783e-38 1700951363
-0.775140 -1.688790 -12.222442 1.880790849211783e-38 1700951363
-0.782388 -1.633829 -12.336734 1.880790849211783e-38 1700951363
-0.721885 -2.289731 -11.382721 1.880790849211783e-38 1700951363
-0.738291 -2.220161 -11.641418 1.880790849211783e-38 1700951363
-0.735547 -3.423465 -11.598143 1.880790849211783e-38 1700951363
-0.727093 -3.297230 -11.464836 1.880790849211783e-38 1700951363
-0.718796 -3.148175 -11.334017 1.880790849211783e-38 1700951363
-0.710079 -3.009089 -11.196568 1.880790849211783e-38 1700951363
-0.702658 -2.864172 -11.079554 1.880790849211783e-38 1700951363
-0.699414 -2.719932 -11.028399 1.880790849211783e-38 1700951363
-0.752248 -3.632393 -11.861488 1.880790849211783e-38 1700951363
-0.741626 -2.136776 -11.694001 1.880790849211783e-38 1700951363
-0.751240 -2.057720 -11.845599 1.880790849211783e-38 1700951363
-0.700351 -2.601431 -11.043173 1.880790849211783e-38 1700951363
-0.708697 -2.563765 -11.174769 1.880790849211783e-38 1700951363
-0.741890 -1.936265 -11.698167 1.880790849211783e-38 1700951363
-0.753826 -1.862728 -11.886374 1.880790849211783e-38 1700951363
-0.715024 -2.478116 -11.274536 1.880790849211783e-38 1700951363
-0.723107 -2.422054 -11.401983 1.880790849211783e-38 1700951363
-0.824802 -1.552669 -12.412726 1.880790849211783e-38 1700951363
-0.831726 -1.501596 -12.516921 1.880790849211783e-38 1700951363
-0.810618 -1.833372 -12.199266 1.880790849211783e-38 1700951363
-0.812139 -1.756688 -12.222162 1.880790849211783e-38 1700951363
-0.820729 -1.706947 -12.351430 1.880790849211783e-38 1700951363
-0.818472 -1.631596 -12.317459 1.880790849211783e-38 1700951363
-0.756600 -2.290907 -11.386341 1.880790849211783e-38 1700951363
-0.778206 -2.233963 -11.711492 1.880790849211783e-38 1700951363
-0.768469 -3.414339 -11.564959 1.880790849211783e-38 1700951363
-0.761322 -3.295736 -11.457397 1.880790849211783e-38 1700951363
-0.761712 -3.184700 -11.463270 1.880790849211783e-38 1700951363
-0.745541 -3.015951 -11.219905 1.880790849211783e-38 1700951363
-0.737381 -2.869268 -11.097092 1.880790849211783e-38 1700951363
-0.737464 -2.737719 -11.098347 1.880790849211783e-38 1700951363
-0.792577 -3.653406 -11.927768 1.880790849211783e-38 1700951363
-0.776238 -2.134977 -11.681868 1.880790849211783e-38 1700951363
-0.783026 -2.047423 -11.784019 1.880790849211783e-38 1700951363
-0.733161 -2.599682 -11.033587 1.880790849211783e-38 1700951363
-0.738380 -2.549895 -11.112139 1.880790849211783e-38 1700951363
-0.775285 -1.931572 -11.667525 1.880790849211783e-38 1700951363
-0.795924 -1.877474 -11.978126 1.880790849211783e-38 1700951363
-0.751733 -2.487076 -11.313085 1.880790849211783e-38 1700951363
-0.754801 -2.413450 -11.359259 1.880790849211783e-38 1700951363
-0.876658 -1.578647 -12.617819 1.880790849211783e-38 1700951363
-0.847308 -1.833163 -12.195376 1.880790849211783e-38 1700951363
-0.848034 -1.754701 -12.205835 1.880790849211783e-38 1700951363
-0.857741 -1.706483 -12.345542 1.880790849211783e-38 1700951363
-0.858628 -1.637343 -12.358313 1.880790849211783e-38 1700951363
-0.796334 -2.306544 -11.461712 1.880790849211783e-38 1700951363
-0.819078 -2.249220 -11.789062 1.880790849211783e-38 1700951363
-0.808962 -3.438222 -11.643468 1.880790849211783e-38 1700951363
-0.800532 -3.315038 -11.522139 1.880790849211783e-38 1700951363
-0.793982 -3.175513 -11.427859 1.880790849211783e-38 1700951363
-0.781663 -3.024809 -11.250552 1.880790849211783e-38 1700951363
-0.771205 -2.870615 -11.100026 1.880790849211783e-38 1700951363
-0.774892 -2.751788 -11.153090 1.880790849211783e-38 1700951363
-0.825144 -3.638412 -11.876380 1.880790849211783e-38 1700951363
-0.820725 -2.159343 -11.812774 1.880790849211783e-38 1700951363
-0.826110 -2.066308 -11.890272 1.880790849211783e-38 1700951363
-0.776205 -2.632831 -11.171988 1.880790849211783e-38 1700951363
-0.776647 -2.565615 -11.178350 1.880790849211783e-38 1700951363
-0.821141 -1.957010 -11.818758 1.880790849211783e-38 1700951363
-0.834559 -1.883151 -12.011882 1.880790849211783e-38 1700951363
-0.786541 -2.489272 -11.320753 1.880790849211783e-38 1700951363
-0.798196 -2.441412 -11.488510 1.880790849211783e-38 1700951363
-0.913121 -1.575905 -12.593207 1.880790849211783e-38 1700951363
-0.892816 -1.851268 -12.313183 1.880790849211783e-38 1700951363
-0.889329 -1.763597 -12.265094 1.880790849211783e-38 1700951363
-0.901891 -1.719679 -12.438341 1.880790849211783e-38 1700951363
-0.899825 -1.644523 -12.409849 1.880790849211783e-38 1700951363
-0.832709 -2.311568 -11.484215 1.880790849211783e-38 1700951363
-0.850171 -2.237486 -11.725048 1.880790849211783e-38 1700951363
-0.843451 -3.435680 -11.632369 1.880790849211783e-38 1700951363
-0.825114 -3.274693 -11.379471 1.880790849211783e-38 1700951363
-0.826161 -3.166759 -11.393914 1.880790849211783e-38 1700951363
-0.810348 -3.005362 -11.175827 1.880790849211783e-38 1700951363
-0.804682 -2.870623 -11.097682 1.880790849211783e-38 1700951363
-0.807257 -2.747469 -11.133203 1.880790849211783e-38 1700951363
-0.870027 -3.676732 -11.998896 1.880790849211783e-38 1700951363
-0.857803 -2.163011 -11.830301 1.880790849211783e-38 1700951363
-0.866186 -2.076422 -11.945913 1.880790849211783e-38 1700951363
-0.802433 -2.608571 -11.066673 1.880790849211783e-38 1700951363
-0.815759 -2.582716 -11.250449 1.880790849211783e-38 1700951363
-0.864884 -1.975514 -11.927954 1.880790849211783e-38 1700951363
-0.878524 -1.899893 -12.116079 1.880790849211783e-38 1700951363
-0.829142 -2.514936 -11.435020 1.880790849211783e-38 1700951363
-0.832780 -2.441232 -11.485204 1.880790849211783e-38 1700951363
-0.954047 -1.580793 -12.629448 1.880790849211783e-38 1700951363
-0.931192 -1.853742 -12.326886 1.880790849211783e-38 1700951363
-0.933434 -1.777147 -12.356566 1.880790849211783e-38 1700951363
-0.937131 -1.715523 -12.405515 1.880790849211783e-38 1700951363
-0.942675 -1.654043 -12.478899 1.880790849211783e-38 1700951363
-0.874131 -2.329664 -11.571535 1.880790849211783e-38 1700951363
-0.893467 -2.257541 -11.827502 1.880790849211783e-38 1700951363
-0.875254 -3.422866 -11.586397 1.880790849211783e-38 1700951363
-0.862979 -3.288213 -11.423903 1.880790849211783e-38 1700951363
-0.858460 -3.159175 -11.364091 1.880790849211783e-38 1700951363
-0.846880 -3.015440 -11.210798 1.880790849211783e-38 1700951363
-0.840166 -2.877535 -11.121919 1.880790849211783e-38 1700951363
-0.843774 -2.757086 -11.169681 1.880790849211783e-38 1700951363
-0.899285 -2.177067 -11.904522 1.880790849211783e-38 1700951363
-0.904151 -2.080887 -11.968932 1.880790849211783e-38 1700951363
-0.847680 -2.645627 -11.221377 1.880790849211783e-38 1700951363
-0.851337 -2.587733 -11.269790 1.880790849211783e-38 1700951363
-0.905451 -1.985593 -11.986135 1.880790849211783e-38 1700951363
-0.916138 -1.902127 -12.127618 1.880790849211783e-38 1700951363
-0.865115 -2.519272 -11.452177 1.880790849211783e-38 1700951363
-0.870069 -2.448699 -11.517763 1.880790849211783e-38 1700951363
-0.975436 -1.867278 -12.414015 1.880790849211783e-38 1700951363
-0.972757 -1.780920 -12.379921 1.880790849211783e-38 1700951363
-0.977516 -1.720760 -12.440489 1.880790849211783e-38 1700951363
-0.983858 -1.660035 -12.521198 1.880790849211783e-38 1700951363
-0.904218 -2.317339 -11.507646 1.880790849211783e-38 1700951363
-0.930872 -2.261762 -11.846860 1.880790849211783e-38 1700951363
-0.919531 -3.457977 -11.702526 1.880790849211783e-38 1700951363
-0.899411 -3.295475 -11.446471 1.880790849211783e-38 1700951363
-0.891722 -3.155607 -11.348617 1.880790849211783e-38 1700951363
-0.884986 -3.030154 -11.262884 1.880790849211783e-38 1700951363
-0.869278 -2.862952 -11.062984 1.880790849211783e-38 1700951363
-0.883986 -2.777597 -11.250161 1.880790849211783e-38 1700951363
-0.933974 -2.174246 -11.886336 1.880790849211783e-38 1700951363
-0.940974 -2.082500 -11.975425 1.880790849211783e-38 1700951363
-0.879621 -2.639931 -11.194613 1.880790849211783e-38 1700951363
-0.885229 -2.587461 -11.265985 1.880790849211783e-38 1700951363
-0.944216 -1.991117 -12.016686 1.880790849211783e-38 1700951363
-0.952971 -1.902647 -12.128114 1.880790849211783e-38 1700951363
-0.898770 -2.516807 -11.438314 1.880790849211783e-38 1700951363
-0.909473 -2.461338 -11.574521 1.880790849211783e-38 1700951363
-1.012647 -1.866868 -12.408289 1.880790849211783e-38 1700951363
-1.016757 -1.792679 -12.458657 1.880790849211783e-38 1700951363
-1.025636 -1.738741 -12.567456 1.880790849211783e-38 1700951363
-1.026772 -1.668415 -12.581367 1.880790849211783e-38 1700951363
-0.950223 -2.345242 -11.643393 1.880790849211783e-38 1700951363
-0.972878 -2.276464 -11.920986 1.880790849211783e-38 1700951363
-0.952611 -3.449981 -11.672647 1.880790849211783e-38 1700951363
-0.932798 -3.291491 -11.429873 1.880790849211783e-38 1700951363
-0.928031 -3.162722 -11.371462 1.880790849211783e-38 1700951363
-0.917575 -3.025627 -11.243341 1.880790849211783e-38 1700951363
-0.903661 -2.866198 -11.072852 1.880790849211783e-38 1700951363
-0.920341 -2.784956 -11.277242 1.880790849211783e-38 1700951363
-0.975207 -2.186333 -11.949525 1.880790849211783e-38 1700951363
-0.976721 -2.081726 -11.968083 1.880790849211783e-38 1700951363
-0.918272 -2.654078 -11.251889 1.880790849211783e-38 1700951363
-0.927357 -2.610420 -11.363205 1.880790849211783e-38 1700951363
-0.978360 -1.986870 -11.988158 1.880790849211783e-38 1700951363
-0.996618 -1.916252 -12.211886 1.880790849211783e-38 1700951363
-0.940199 -2.535517 -11.520561 1.880790849211783e-38 1700951363
-0.955940 -2.491481 -11.713437 1.880790849211783e-38 1700951363
-1.052815 -1.871756 -12.437660 1.880790849211783e-38 1700951363
-1.065974 -1.812480 -12.593113 1.880790849211783e-38 1700951363
-1.061371 -1.735203 -12.538736 1.880790849211783e-38 1700951363
-1.071582 -1.679181 -12.659374 1.880790849211783e-38 1700951363
-0.986434 -2.347856 -11.653452 1.880790849211783e-38 1700951363
-1.010995 -2.281357 -11.943614 1.880790849211783e-38 1700951363
-0.986689 -3.446061 -11.656463 1.880790849211783e-38 1700951363
-0.971385 -3.305507 -11.475667 1.880790849211783e-38 1700951363
-0.968906 -3.184359 -11.446384 1.880790849211783e-38 1700951363
-0.952141 -3.027729 -11.248330 1.880790849211783e-38 1700951363
-0.942897 -2.884074 -11.139121 1.880790849211783e-38 1700951363
-0.954565 -2.785586 -11.276964 1.880790849211783e-38 1700951363
-1.020425 -2.206186 -12.055013 1.880790849211783e-38 1700951363
-1.024683 -2.106125 -12.105320 1.880790849211783e-38 1700951363
-0.952653 -2.655331 -11.254379 1.880790849211783e-38 1700951363
-0.964978 -2.619524 -11.399978 1.880790849211783e-38 1700951363
-1.023774 -2.005009 -12.094575 1.880790849211783e-38 1700951363
-1.032875 -1.915196 -12.202100 1.880790849211783e-38 1700951363
-0.968190 -2.517960 -11.437923 1.880790849211783e-38 1700951363
-0.991593 -2.492310 -11.714397 1.880790849211783e-38 1700951363
-1.101750 -1.891375 -12.564762 1.880790849211783e-38 1700951363
-1.102873 -1.810713 -12.577567 1.880790849211783e-38 1700951363
-1.113519 -1.757834 -12.698973 1.880790849211783e-38 1700951363
-1.114913 -1.686981 -12.714875 1.880790849211783e-38 1700951363
-1.031436 -2.370517 -11.762867 1.880790849211783e-38 1700951363
-1.055023 -2.298811 -12.031867 1.880790849211783e-38 1700951363
-1.024058 -3.453541 -11.678728 1.880790849211783e-38 1700951363
-1.006120 -3.305932 -11.474161 1.880790849211783e-38 1700951363
-0.999854 -3.173030 -11.402698 1.880790849211783e-38 1700951363
-0.989361 -3.037860 -11.283037 1.880790849211783e-38 1700951363
-0.974332 -2.877707 -11.111638 1.880790849211783e-38 1700951363
-0.993595 -2.799738 -11.331313 1.880790849211783e-38 1700951363
-1.056863 -2.206364 -12.052849 1.880790849211783e-38 1700951363
-1.067353 -2.118361 -12.172485 1.880790849211783e-38 1700951363
-0.997011 -2.683373 -11.370277 1.880790849211783e-38 1700951363
-1.003581 -2.630598 -11.445197 1.880790849211783e-38 1700951363
-1.060735 -2.005934 -12.097007 1.880790849211783e-38 1700951363
-1.079784 -1.933301 -12.314248 1.880790849211783e-38 1700951363
-1.017959 -2.556324 -11.609177 1.880790849211783e-38 1700951363
-1.026633 -2.491616 -11.708091 1.880790849211783e-38 1700951363
-1.136370 -1.885952 -12.525362 1.880790849211783e-38 1700951363
-1.150115 -1.825500 -12.676867 1.880790849211783e-38 1700951363
-1.154976 -1.762665 -12.730441 1.880790849211783e-38 1700951363
-1.151585 -1.684541 -12.693067 1.880790849211783e-38 1700951363
-1.066026 -2.368564 -11.750014 1.880790849211783e-38 1700951363
-1.095089 -2.306785 -12.070353 1.880790849211783e-38 1700951363
-1.057730 -3.448511 -11.658579 1.880790849211783e-38 1700951363
-1.043083 -3.313442 -11.497132 1.880790849211783e-38 1700951363
-1.034068 -3.172510 -11.397763 1.880790849211783e-38 1700951363
-1.024725 -3.041843 -11.294791 1.880790849211783e-38 1700951363
-1.015280 -2.898957 -11.190680 1.880790849211783e-38 1700951363
-1.032673 -2.813114 -11.382386 1.880790849211783e-38 1700951363
-1.095235 -2.210458 -12.071965 1.880790849211783e-38 1700951363
-1.104563 -2.119331 -12.174782 1.880790849211783e-38 1700951363
-1.033573 -2.689297 -11.392312 1.880790849211783e-38 1700951363
-1.036581 -2.626771 -11.425470 1.880790849211783e-38 1700951363
-1.104251 -2.018803 -12.171341 1.880790849211783e-38 1700951363
-1.126417 -1.949747 -12.415660 1.880790849211783e-38 1700951363
-1.052660 -2.555585 -11.602695 1.880790849211783e-38 1700951363
-1.069933 -2.510378 -11.793081 1.880790849211783e-38 1700951363
-1.173720 -1.885275 -12.517385 1.880790849211783e-38 1700951363
-1.188586 -1.825874 -12.675934 1.880790849211783e-38 1700951363
-1.194996 -1.765074 -12.744297 1.880790849211783e-38 1700951363
-1.110720 -2.388479 -11.845511 1.880790849211783e-38 1700951363
-1.136387 -2.316772 -12.119239 1.880790849211783e-38 1700951363
-1.074472 -3.303354 -11.458939 1.880790849211783e-38 1700951363
-1.067513 -3.169763 -11.384725 1.880790849211783e-38 1700951363
-1.062662 -3.052980 -11.332993 1.880790849211783e-38 1700951363
-1.048831 -2.898417 -11.185483 1.880790849211783e-38 1700951363
-1.072204 -2.826843 -11.434754 1.880790849211783e-38 1700951363
-1.136180 -2.219327 -12.117033 1.880790849211783e-38 1700951363
-1.141809 -2.120319 -12.177070 1.880790849211783e-38 1700951363
-1.072283 -2.700265 -11.435593 1.880790849211783e-38 1700951363
-1.082481 -2.654841 -11.544353 1.880790849211783e-38 1700951363
-1.150423 -2.035556 -12.268929 1.880790849211783e-38 1700951363
-1.168862 -1.958130 -12.465573 1.880790849211783e-38 1700951363
-1.097118 -2.577833 -11.700449 1.880790849211783e-38 1700951363
-1.108421 -2.517019 -11.820992 1.880790849211783e-38 1700951363
-1.218009 -1.895456 -12.581366 1.880790849211783e-38 1700951363
-1.234875 -1.837875 -12.755586 1.880790849211783e-38 1700951363
-1.243919 -1.780087 -12.848998 1.880790849211783e-38 1700951363
-1.149081 -2.393978 -11.869374 1.880790849211783e-38 1700951363
-1.176446 -2.323711 -12.152044 1.880790849211783e-38 1700951363
-1.104278 -3.289206 -11.406585 1.880790849211783e-38 1700951363
-1.106743 -3.183854 -11.432052 1.880790849211783e-38 1700951363
-1.091625 -3.038470 -11.275889 1.880790849211783e-38 1700951363
-1.094421 -2.930170 -11.304773 1.880790849211783e-38 1700951363
-1.116636 -2.852256 -11.534236 1.880790849211783e-38 1700951363
-1.178321 -2.229927 -12.171408 1.880790849211783e-38 1700951363
-1.189296 -2.139688 -12.284774 1.880790849211783e-38 1700951363
-1.109204 -2.706210 -11.457476 1.880790849211783e-38 1700951363
-1.118708 -2.658202 -11.555646 1.880790849211783e-38 1700951363
-1.183033 -2.028035 -12.220089 1.880790849211783e-38 1700951363
-1.206984 -1.958993 -12.467484 1.880790849211783e-38 1700951363
-1.133710 -2.580812 -11.710608 1.880790849211783e-38 1700951363
-1.153303 -2.537336 -11.912985 1.880790849211783e-38 1700951363
-1.258118 -1.898731 -12.599365 1.880790849211783e-38 1700951363
-1.280305 -1.847927 -12.821550 1.880790849211783e-38 1700951363
-1.283653 -1.781458 -12.855085 1.880790849211783e-38 1700951363
-1.196767 -2.418009 -11.984963 1.880790849211783e-38 1700951363
-1.220806 -2.338489 -12.225702 1.880790849211783e-38 1700951363
-1.143335 -3.302669 -11.449876 1.880790849211783e-38 1700951363
-1.139655 -3.179495 -11.413014 1.880790849211783e-38 1700951363
-1.125047 -3.036902 -11.266728 1.880790849211783e-38 1700951363
-1.121678 -2.912426 -11.232985 1.880790849211783e-38 1700951363
-1.152420 -2.854739 -11.540854 1.880790849211783e-38 1700951363
-1.227969 -2.253685 -12.297435 1.880790849211783e-38 1700951363
-1.227485 -2.141684 -12.292589 1.880790849211783e-38 1700951363
-1.151950 -2.725601 -11.536151 1.880790849211783e-38 1700951363
-1.153091 -2.657133 -11.547575 1.880790849211783e-38 1700951363
-1.239629 -2.060861 -12.414199 1.880790849211783e-38 1700951363
-1.250657 -1.968559 -12.524648 1.880790849211783e-38 1700951363
-1.171785 -2.586909 -11.734788 1.880790849211783e-38 1700951363
-1.185686 -2.529782 -11.873996 1.880790849211783e-38 1700951363
-1.228706 -2.409772 -11.940488 1.880790849211783e-38 1700951363
-1.250829 -2.325769 -12.155482 1.880790849211783e-38 1700951363
-1.171378 -3.172209 -11.383378 1.880790849211783e-38 1700951363
-1.163997 -3.049944 -11.311653 1.880790849211783e-38 1700951363
-1.160820 -2.925713 -11.280782 1.880790849211783e-38 1700951363
-1.187638 -2.855746 -11.541396 1.880790849211783e-38 1700951363
-1.264434 -2.252588 -12.287693 1.880790849211783e-38 1700951363
-1.275741 -2.160636 -12.397578 1.880790849211783e-38 1700951363
-1.184685 -2.720893 -11.512704 1.880790849211783e-38 1700951363
-1.201406 -2.687319 -11.675188 1.880790849211783e-38 1700951363
-1.275547 -2.058417 -12.395686 1.880790849211783e-38 1700951363
-1.295186 -1.978892 -12.586545 1.880790849211783e-38 1700951363
-1.215808 -2.605421 -11.815153 1.880790849211783e-38 1700951363
-1.229623 -2.546626 -11.949405 1.880790849211783e-38 1700951363
-1.269139 -2.418207 -11.978509 1.880790849211783e-38 1700951363
-1.298542 -2.345745 -12.256024 1.880790849211783e-38 1700951363
-1.215400 -3.197719 -11.471309 1.880790849211783e-38 1700951363
-1.193974 -3.039421 -11.269076 1.880790849211783e-38 1700951363
-1.196787 -2.930487 -11.295632 1.880790849211783e-38 1700951363
-1.232223 -2.878597 -11.630082 1.880790849211783e-38 1700951363
-1.305081 -2.258807 -12.317735 1.880790849211783e-38 1700951363
-1.311777 -2.158415 -12.380936 1.880790849211783e-38 1700951363
-1.232760 -2.750699 -11.635155 1.880790849211783e-38 1700951363
-1.228570 -2.669842 -11.595608 1.880790849211783e-38 1700951363
-1.263479 -2.630491 -11.925086 1.880790849211783e-38 1700951363
-1.270461 -2.556292 -11.990982 1.880790849211783e-38 1700951363
-1.310950 -2.428747 -12.026822 1.880790849211783e-38 1700951363
-1.341182 -2.355725 -12.304180 1.880790849211783e-38 1700951363
-1.248121 -3.192932 -11.450424 1.880790849211783e-38 1700951363
-1.227495 -3.038280 -11.261193 1.880790849211783e-38 1700951363
-1.235651 -2.941920 -11.336025 1.880790849211783e-38 1700951363
-1.260138 -2.862343 -11.560667 1.880790849211783e-38 1700951363
-1.260387 -2.734515 -11.562952 1.880790849211783e-38 1700951363
-1.276330 -2.696875 -11.709219 1.880790849211783e-38 1700951363
-1.294253 -2.619993 -11.873643 1.880790849211783e-38 1700951363
-1.310097 -2.563096 -12.019002 1.880790849211783e-38 1700951363
-1.284370 -3.197222 -11.461987 1.880790849211783e-38 1700951363
-1.266618 -3.050727 -11.303561 1.880790849211783e-38 1700951363
-1.284313 -2.975469 -11.461479 1.880790849211783e-38 1700951363
-1.312353 -2.900706 -11.711707 1.880790849211783e-38 1700951363
-1.303027 -2.750929 -11.628481 1.880790849211783e-38 1700951363
-1.318774 -2.711550 -11.769012 1.880790849211783e-38 1700951363
-1.336419 -2.632529 -11.926477 1.880790849211783e-38 1700951363
-1.355879 -2.581261 -12.100148 1.880790849211783e-38 1700951363
-1.310799 -3.177504 -11.387395 1.880790849211783e-38 1700951363
-1.298015 -3.044421 -11.276334 1.880790849211783e-38 1700951363
-1.313845 -2.964121 -11.413856 1.880790849211783e-38 1700951363
-1.345953 -2.897014 -11.692791 1.880790849211783e-38 1700951363
-1.348563 -2.772456 -11.715463 1.880790849211783e-38 1700951363
-1.360818 -2.724674 -11.821926 1.880790849211783e-38 1700951363
-1.353697 -3.197723 -11.455825 1.880790849211783e-38 1700951363
-1.346007 -3.076392 -11.390744 1.880790849211783e-38 1700951363
-1.355929 -2.980973 -11.474711 1.880790849211783e-38 1700951363
-1.383789 -2.902417 -11.710480 1.880790849211783e-38 1700951363
-1.384910 -3.086543 -11.424204 1.880790849211783e-38 1700951363
-1.404230 -3.010343 -11.583583 1.880790849211783e-38 1700951363
1.397115 -3.391760 -11.428736 1.880790849211783e-38 1700951363
1.397043 -3.304506 -11.428144 1.880790849211783e-38 1700951363
1.422512 -3.249722 -11.636486 1.880790849211783e-38 1700951363
1.460748 -2.477880 -12.256053 1.880790849211783e-38 1700951363
1.491106 -2.398026 -12.510763 1.880790849211783e-38 1700951363
1.359180 -3.383148 -11.403868 1.880790849211783e-38 1700951363
1.360876 -3.300400 -11.418099 1.880790849211783e-38 1700951363
1.374648 -3.219831 -11.533649 1.880790849211783e-38 1700951363
1.380654 -3.128970 -11.584038 1.880790849211783e-38 1700951363
1.399987 -3.051879 -11.746248 1.880790849211783e-38 1700951363
1.418049 -2.949193 -11.897791 1.880790849211783e-38 1700951363
1.488533 -2.293616 -12.489172 1.880790849211783e-38 1700951363
1.510860 -2.213196 -12.676502 1.880790849211783e-38 1700951363
1.424096 -2.828944 -11.948535 1.880790849211783e-38 1700951363
1.426989 -2.760749 -11.972805 1.880790849211783e-38 1700951363
1.506031 -2.102072 -12.635989 1.880790849211783e-38 1700951363
1.519937 -2.008594 -12.752662 1.880790849211783e-38 1700951363
1.442432 -2.673529 -12.102377 1.880790849211783e-38 1700951363
1.460331 -2.615900 -12.252549 1.880790849211783e-38 1700951363
1.410146 -2.454150 -12.142990 1.880790849211783e-38 1700951363
1.440662 -2.377058 -12.405772 1.880790849211783e-38 1700951363
1.326872 -3.388485 -11.425911 1.880790849211783e-38 1700951363
1.311916 -3.264271 -11.297117 1.880790849211783e-38 1700951363
1.328501 -3.192535 -11.439934 1.880790849211783e-38 1700951363
1.345467 -3.128399 -11.586035 1.880790849211783e-38 1700951363
1.359245 -3.039999 -11.704677 1.880790849211783e-38 1700951363
1.376237 -2.936553 -11.851001 1.880790849211783e-38 1700951363
1.448242 -2.289475 -12.471046 1.880790849211783e-38 1700951363
1.454192 -2.185494 -12.522278 1.880790849211783e-38 1700951363
1.376069 -2.804514 -11.849552 1.880790849211783e-38 1700951363
1.380709 -2.740569 -11.889507 1.880790849211783e-38 1700951363
1.453267 -2.081093 -12.514318 1.880790849211783e-38 1700951363
1.477652 -2.003416 -12.724303 1.880790849211783e-38 1700951363
1.402706 -2.667402 -12.078926 1.880790849211783e-38 1700951363
1.417196 -2.604546 -12.203701 1.880790849211783e-38 1700951363
1.375614 -2.457899 -12.165743 1.880790849211783e-38 1700951363
1.401540 -2.374179 -12.395031 1.880790849211783e-38 1700951363
1.289451 -3.380737 -11.403726 1.880790849211783e-38 1700951363
1.272652 -3.251024 -11.255161 1.880790849211783e-38 1700951363
1.293463 -3.191230 -11.439211 1.880790849211783e-38 1700951363
1.300601 -3.104726 -11.502337 1.880790849211783e-38 1700951363
1.310279 -3.008638 -11.587934 1.880790849211783e-38 1700951363
1.339185 -2.933698 -11.843574 1.880790849211783e-38 1700951363
1.408737 -2.286414 -12.458680 1.880790849211783e-38 1700951363
1.414722 -2.182878 -12.511611 1.880790849211783e-38 1700951363
1.329517 -2.781899 -11.758063 1.880790849211783e-38 1700951363
1.347601 -2.746186 -11.917996 1.880790849211783e-38 1700951363
1.404840 -2.065395 -12.424217 1.880790849211783e-38 1700951363
1.431083 -1.992022 -12.656305 1.880790849211783e-38 1700951363
1.365618 -2.666130 -12.077340 1.880790849211783e-38 1700951363
1.374979 -2.594350 -12.160128 1.880790849211783e-38 1700951363
1.400273 -1.920070 -12.727532 1.880790849211783e-38 1700951363
1.323677 -2.429923 -12.031322 1.880790849211783e-38 1700951363
1.364512 -2.374808 -12.402486 1.880790849211783e-38 1700951363
1.250296 -3.367928 -11.364342 1.880790849211783e-38 1700951363
1.228492 -3.224230 -11.166154 1.880790849211783e-38 1700951363
1.245918 -3.158180 -11.324551 1.880790849211783e-38 1700951363
1.259748 -3.089627 -11.450248 1.880790849211783e-38 1700951363
1.274371 -3.006390 -11.583169 1.880790849211783e-38 1700951363
1.290327 -2.904142 -11.728197 1.880790849211783e-38 1700951363
1.363718 -2.274012 -12.395271 1.880790849211783e-38 1700951363
1.369249 -2.170621 -12.445545 1.880790849211783e-38 1700951363
1.286409 -2.765477 -11.692586 1.880790849211783e-38 1700951363
1.302848 -2.727757 -11.841998 1.880790849211783e-38 1700951363
1.364829 -2.061568 -12.405367 1.880790849211783e-38 1700951363
1.388313 -1.985454 -12.618825 1.880790849211783e-38 1700951363
1.318547 -2.644788 -11.984692 1.880790849211783e-38 1700951363
1.330378 -2.578997 -12.092233 1.880790849211783e-38 1700951363
1.356185 -1.912040 -12.678454 1.880790849211783e-38 1700951363
1.283173 -2.421974 -11.995887 1.880790849211783e-38 1700951363
1.316022 -2.354984 -12.302981 1.880790849211783e-38 1700951363
1.216614 -3.369586 -11.373655 1.880790849211783e-38 1700951363
