# .PCD v0.7 - Point Cloud Data file format
VERSION 0.7
FIELDS x y z rgb label
SIZE 4 4 4 4 4
TYPE F F F F U
COUNT 1 1 1 1 1
WIDTH 1521
HEIGHT 1
VIEWPOINT 0 0 0 1 0 0 0
POINTS 1521
DATA ascii
-0.303930 -1.558406 -11.893365
-0.309720 -1.381469 -11.883201
-0.273206 -1.407323 -11.970563
-0.264731 -1.320469 -12.045977
-0.277851 -1.686180 -11.581168
-0.367561 -1.746041 -11.594224
-0.298771 -1.224554 -12.171240
-0.273219 -1.639451 -11.670091
-0.326537 -1.446015 -11.817321
-0.301867 -2.243415 -11.011623
-0.232147 -2.171643 -11.079401
-0.298467 -3.349526 -11.632174
-0.241548 -3.289136 -11.483667
-0.327938 -3.152296 -11.292403
-0.260792 -3.008047 -11.087633
-0.327896 -3.975868 -12.184326
-0.302425 -2.830602 -11.046220
-0.374826 -2.622921 -10.894436
-0.327788 -3.700885 -11.858008
-0.350103 -3.529113 -11.723786
-0.276222 -1.954398 -11.235169
-0.337261 -1.908755 -11.227652
-0.278648 -2.573997 -10.646996
-0.250891 -2.496672 -10.735427
-0.330680 -1.867467 -11.488856
-0.310280 -1.702229 -11.492380
-0.299009 -2.441431 -10.840191
-0.301177 -2.330961 -10.783954
-0.400467 -1.522765 -11.898901
-0.506044 -1.311752 -12.128316
-0.372062 -1.356913 -11.997310
-0.315252 -1.291869 -12.177106
-0.337084 -1.728717 -11.537821
-0.370189 -1.709578 -11.685143
-0.306352 -1.251899 -12.228695
-0.315277 -1.642732 -11.747225
-0.407497 -1.555566 -11.764773
-0.252182 -2.171457 -11.058929
-0.275953 -2.088265 -11.134035
-0.406048 -3.510553 -11.505353
-0.342040 -3.315723 -11.407214
-0.399807 -3.110918 -11.172472
-0.343414 -3.051364 -11.181288
-0.316909 -4.015859 -12.158228
-0.361531 -2.867952 -11.008462
-0.293303 -2.500734 -10.873058
-0.313509 -3.787871 -11.881482
-0.302319 -3.638088 -11.741263
-0.361795 -2.112875 -11.263804
-0.375290 -1.960709 -11.288538
-0.253840 -2.635507 -10.768548
-0.289232 -2.476889 -10.725117
-0.347202 -1.996714 -11.456108
-0.287780 -1.859064 -11.545023
-0.343568 -2.428860 -10.840855
-0.356510 -2.252188 -10.893622
-0.373917 -1.420635 -12.025360
-0.533429 -1.425136 -11.952340
-0.445548 -1.406427 -12.046135
-0.343722 -1.245013 -12.192757
-0.365131 -1.857188 -11.666897
-0.376308 -1.716882 -11.749196
-0.490933 -1.216769 -12.265280
-0.469882 -1.615743 -11.799440
-0.386664 -1.559715 -11.862955
-0.354124 -2.226497 -11.162772
-0.411041 -2.108185 -11.204046
-0.301618 -3.462879 -11.548796
-0.449716 -3.268958 -11.442859
-0.210733 -3.132009 -11.322259
-0.401448 -3.069658 -11.228672
-0.460329 -4.052742 -12.132510
-0.321104 -2.888373 -11.097019
-0.285047 -2.666071 -10.882530
-0.468245 -3.714844 -11.941386
-0.397288 -3.567193 -11.657170
-0.345936 -1.975152 -11.250551
-0.369915 -2.047366 -11.396819
-0.321368 -2.575249 -10.682593
-0.357077 -2.501066 -10.731369
-0.385259 -1.841042 -11.510275
-0.325804 -1.742696 -11.653487
-0.350612 -2.403819 -10.825286
-0.329263 -2.356850 -10.912274
-0.485591 -1.511294 -12.040002
-0.462534 -1.427461 -12.073749
-0.490969 -1.336580 -12.137739
-0.486449 -1.299521 -12.275373
-0.478502 -1.792181 -11.733669
-0.398022 -1.689738 -11.817491
-0.366078 -1.572168 -11.828630
-0.361545 -1.590664 -12.007150
-0.380538 -2.280134 -11.131424
-0.405427 -2.124816 -11.281777
-0.429000 -3.442763 -11.496801
-0.375357 -3.308486 -11.484812
-0.347155 -3.133548 -11.306722
-0.394535 -3.059031 -11.140721
-0.343222 -3.973813 -12.044680
-0.397259 -2.938383 -11.041046
-0.430622 -2.694765 -10.882110
-0.376012 -3.772606 -11.903200
-0.413421 -3.659948 -11.688915
-0.447562 -2.101641 -11.342248
-0.372152 -2.042547 -11.440646
-0.433159 -2.523903 -10.640354
-0.426216 -2.422060 -10.849675
-0.486578 -1.878676 -11.521419
-0.482905 -1.781994 -11.623033
-0.391880 -2.383905 -10.857302
-0.401586 -2.284342 -10.982948
-0.414474 -1.535668 -12.085722
-0.499482 -1.427897 -12.108739
-0.503512 -1.416509 -12.139998
-0.443017 -1.395183 -12.348933
-0.473167 -1.760342 -11.704476
-0.464152 -1.686879 -11.776105
-0.437799 -1.670930 -11.906979
-0.523221 -1.565726 -11.944102
-0.457229 -2.221641 -11.120336
-0.405660 -2.160245 -11.241923
-0.443616 -3.445824 -11.534919
-0.416085 -3.313727 -11.449013
-0.315205 -3.180750 -11.354749
-0.447389 -2.914371 -11.162256
-0.407707 -2.752154 -11.032236
-0.355857 -2.668340 -11.033693
-0.424393 -3.872387 -11.999513
-0.503513 -3.634595 -11.704707
-0.544449 -2.086197 -11.331285
-0.419039 -2.048481 -11.478447
-0.448326 -2.633012 -10.804855
-0.451123 -2.498890 -10.848660
-0.465609 -1.843522 -11.563350
-0.521386 -1.900616 -11.601882
-0.423257 -2.268172 -10.904347
-0.433680 -2.345354 -11.028241
-0.473872 -1.459481 -12.126430
-0.462109 -1.468987 -12.169429
-0.588331 -1.349835 -12.248507
-0.593074 -1.309785 -12.294233
-0.538959 -1.724099 -11.734006
-0.373168 -1.733719 -11.974676
-0.415657 -1.649695 -11.976232
-0.526310 -1.542673 -12.030568
-0.427139 -2.235226 -11.160577
-0.468890 -2.102824 -11.295433
-0.493870 -3.359124 -11.617504
-0.440977 -3.284354 -11.515234
-0.455235 -3.027877 -11.356493
-0.424791 -3.103934 -11.167506
-0.503135 -2.717826 -11.029516
-0.485657 -2.660884 -10.835162
-0.526097 -3.756398 -11.960016
-0.421178 -3.571937 -11.682198
-0.435723 -1.981672 -11.398573
-0.546129 -2.040836 -11.419617
-0.476342 -2.578191 -10.871847
-0.465995 -2.421038 -10.800729
-0.486133 -1.960870 -11.634704
-0.546976 -1.851139 -11.721945
-0.568398 -2.412112 -10.948869
-0.551645 -2.324606 -11.081699
-0.576077 -1.543849 -12.105561
-0.499155 -1.516148 -12.244191
-0.489695 -1.322315 -12.423837
-0.588105 -1.755417 -11.728245
-0.418189 -1.744686 -11.909455
-0.470957 -1.590845 -11.936445
-0.452762 -1.587499 -12.058378
-0.507789 -2.263436 -11.167266
-0.562610 -2.113229 -11.222058
-0.382791 -3.447074 -11.570403
-0.528608 -3.378859 -11.409695
-0.467805 -3.148285 -11.307289
-0.397833 -3.037324 -11.235621
-0.563722 -2.843758 -11.111758
-0.513055 -2.629310 -10.873313
-0.630718 -3.793637 -12.022605
-0.588155 -3.610951 -11.770293
-0.489643 -2.098521 -11.493350
-0.502421 -2.027839 -11.523120
-0.621595 -2.577623 -10.764888
-0.520233 -2.457035 -10.888762
-0.519906 -2.057958 -11.611687
-0.602462 -1.837915 -11.716869
-0.538393 -2.369076 -11.050434
-0.521090 -2.328968 -11.035793
-0.621959 -1.497705 -12.174107
-0.668197 -1.394514 -12.298170
-0.574587 -1.409310 -12.280223
-0.627358 -1.765709 -11.872779
-0.540051 -1.697558 -11.973840
-0.502893 -1.636727 -12.048208
-0.557054 -1.568155 -12.047290
-0.574053 -2.254639 -11.276981
-0.484380 -2.190796 -11.297155
-0.523362 -3.459538 -11.522787
-0.602284 -3.306339 -11.487785
-0.537561 -3.185794 -11.340316
-0.500659 -3.034022 -11.229919
-0.569243 -3.012343 -11.019267
-0.521076 -2.682210 -10.909322
-0.608365 -3.790594 -12.038395
-0.558347 -3.550391 -11.729767
-0.494399 -2.084772 -11.503314
-0.593543 -1.897511 -11.640032
-0.510077 -2.544382 -10.902168
-0.548800 -2.511149 -10.953780
-0.552882 -1.906753 -11.730288
-0.521479 -1.825967 -11.770742
-0.476819 -2.459770 -11.051671
-0.598291 -2.286625 -11.208309
-0.654533 -1.510023 -12.293127
-0.648505 -1.474800 -12.420360
-0.587914 -1.419148 -12.323090
-0.638240 -1.768276 -11.925549
-0.554280 -1.712926 -11.956148
-0.652474 -1.625474 -12.127824
-0.604116 -1.558836 -12.121916
-0.619123 -2.287541 -11.322380
-0.532023 -2.222551 -11.368142
-0.550833 -3.313029 -11.554042
-0.539773 -3.332586 -11.469291
-0.622830 -3.090484 -11.436294
-0.483667 -3.040765 -11.230614
-0.538016 -2.820775 -11.125732
-0.567938 -2.666688 -10.908763
-0.592785 -3.810811 -12.019134
-0.660782 -3.635861 -11.779840
-0.657148 -2.028369 -11.550598
-0.603306 -2.049960 -11.625328
-0.557762 -2.580023 -10.832412
-0.567219 -2.514247 -11.001902
-0.625137 -1.979145 -11.737231
-0.557680 -1.911583 -11.844225
-0.541377 -2.502879 -11.087983
-0.487331 -2.356202 -11.227085
-0.645454 -1.547253 -12.282672
-0.689709 -1.535766 -12.424478
-0.737469 -1.478812 -12.402426
-0.689698 -1.884341 -11.920212
-0.667861 -1.792467 -12.064727
-0.642387 -1.689811 -12.175455
-0.657490 -1.613802 -12.249070
-0.653650 -2.280850 -11.303774
-0.675111 -2.134641 -11.420868
-0.592762 -3.484392 -11.618089
-0.660125 -3.311264 -11.511255
-0.705295 -3.143576 -11.346788
-0.527620 -3.038590 -11.248079
-0.556018 -2.835641 -11.074171
-0.640429 -2.605908 -10.927540
-0.674321 -3.916961 -12.018722
-0.716586 -3.519662 -11.734849
-0.651828 -2.093322 -11.548481
-0.656934 -2.025550 -11.737947
-0.548854 -2.542448 -10.942805
-0.571642 -2.584826 -11.139691
-0.632356 -1.930540 -11.767442
-0.619457 -1.839927 -11.824127
-0.592902 -2.404308 -11.090023
-0.630926 -2.354332 -11.129268
-0.779624 -1.484450 -12.385717
-0.693871 -1.520573 -12.412649
-0.617237 -1.748250 -12.000466
-0.622593 -1.722373 -12.023988
-0.698312 -1.706232 -12.250454
-0.842832 -1.605406 -12.232097
-0.665244 -2.271876 -11.370121
-0.661031 -2.320605 -11.558827
-0.637965 -3.450725 -11.759851
-0.752665 -3.306065 -11.546510
-0.728140 -3.148513 -11.404734
-0.627274 -3.002740 -11.207925
-0.651134 -2.825261 -11.095456
-0.637636 -2.718333 -10.919183
-0.619485 -3.549786 -11.771932
-0.694869 -2.109934 -11.655739
-0.571771 -2.055376 -11.748401
-0.609670 -2.598269 -10.921767
-0.684096 -2.577643 -11.064505
-0.699627 -1.943914 -11.739524
-0.664218 -1.937596 -11.936214
-0.621318 -2.361581 -11.062806
-0.589300 -2.492712 -11.210899
-0.754700 -1.480376 -12.309969
-0.701809 -1.466744 -12.387511
-0.826276 -1.771507 -12.040551
-0.639921 -1.761129 -12.083988
-0.726156 -1.617518 -12.213872
-0.646302 -1.695387 -12.273763
-0.635244 -2.270070 -11.413277
-0.717772 -2.144143 -11.550196
-0.666294 -3.454406 -11.625015
-0.742603 -3.245608 -11.481978
-0.636461 -3.253412 -11.327651
-0.582505 -3.064136 -11.267820
-0.748505 -2.942622 -11.034627
-0.699808 -2.640243 -10.873218
-0.759901 -3.572229 -11.786409
-0.638748 -2.135477 -11.617925
-0.736560 -1.932331 -11.721686
-0.669766 -2.601078 -11.003080
-0.694341 -2.582905 -11.135609
-0.691668 -2.070313 -11.863025
-0.669822 -1.847495 -12.003852
-0.721404 -2.490261 -11.128828
-0.657074 -2.356346 -11.405351
-0.750545 -1.552605 -12.471172
-0.688617 -1.424567 -12.530176
-0.785465 -1.848707 -12.108853
-0.753940 -1.789681 -12.141555
-0.852720 -1.717680 -12.306752
-0.814321 -1.562896 -12.434071
-0.739244 -2.282128 -11.435668
-0.788341 -2.210244 -11.597573
-0.718032 -3.441866 -11.619726
-0.700668 -3.303248 -11.476620
-0.648632 -3.076343 -11.348566
-0.729039 -2.983794 -11.147307
-0.695848 -2.917095 -11.098107
-0.697874 -2.630762 -10.931714
-0.811281 -3.609121 -11.836353
-0.784926 -2.095791 -11.768533
-0.753416 -2.088816 -11.651076
-0.744080 -2.596665 -11.113289
-0.705006 -2.493320 -11.097774
-0.758234 -2.024080 -11.872563
-0.856302 -1.909060 -11.997936
-0.818808 -2.568168 -11.319646
-0.675657 -2.459089 -11.328891
-0.815790 -1.583938 -12.475996
-0.896558 -1.474160 -12.577839
-0.906667 -1.809938 -12.119755
-0.805387 -1.685917 -12.165580
-0.883994 -1.631791 -12.230858
-0.857971 -1.570351 -12.272761
-0.858746 -2.293050 -11.484243
-0.858157 -2.277883 -11.687376
-0.766652 -3.463544 -11.581243
-0.787528 -3.339334 -11.496817
-0.690376 -3.126698 -11.382817
-0.733628 -3.049537 -11.171435
-0.714346 -2.870011 -11.096316
-0.632233 -2.676971 -10.992305
-0.730457 -3.594792 -11.844730
-0.763945 -2.141339 -11.672455
-0.714793 -2.094158 -11.829737
-0.704946 -2.651762 -11.188275
-0.701845 -2.556309 -11.087827
-0.826488 -1.998460 -11.880888
-0.756366 -1.992537 -12.067705
-0.646966 -2.417379 -11.226137
-0.756142 -2.409910 -11.465072
-0.833240 -1.500371 -12.559414
-0.723930 -1.813688 -12.255126
-0.891714 -1.813084 -12.256205
-0.746460 -1.631152 -12.375873
-0.845212 -1.606313 -12.475468
-0.741007 -2.331116 -11.567467
-0.793906 -2.340219 -11.651711
-0.841768 -3.482040 -11.665592
-0.782600 -3.285692 -11.500999
-0.742591 -3.173343 -11.359442
-0.772004 -3.000142 -11.208494
-0.820212 -2.803555 -11.017858
-0.760357 -2.803143 -11.041113
-0.733236 -3.650711 -11.828761
-0.801951 -2.147295 -11.801536
-0.813496 -2.028127 -11.898177
-0.708188 -2.614274 -11.148313
-0.722495 -2.597854 -11.113449
-0.739070 -1.952390 -11.993373
-0.814263 -1.861263 -12.109927
-0.787310 -2.436559 -11.246436
-0.801762 -2.350539 -11.341102
-0.865914 -1.484623 -12.647237
-0.845580 -1.963136 -12.220338
-0.982203 -1.782084 -12.339841
-0.868386 -1.697493 -12.371077
-0.916350 -1.730741 -12.476982
-0.938914 -2.292382 -11.574990
-0.837529 -2.231098 -11.645440
-0.978272 -3.463404 -11.627497
-0.764158 -3.317660 -11.508649
-0.803049 -3.069606 -11.408014
-0.797697 -3.089739 -11.281916
-0.832707 -2.914405 -11.140241
-0.855039 -2.764349 -11.029559
-0.846011 -3.699022 -11.771620
-0.778961 -2.161759 -11.702544
-0.681450 -2.149590 -12.013853
-0.744591 -2.747036 -11.201722
-0.823590 -2.597282 -11.258108
-0.854505 -1.992089 -12.057090
-0.893521 -1.984562 -12.069442
-0.928827 -2.590126 -11.255541
-0.904489 -2.430370 -11.465005
-1.025946 -1.642405 -12.629323
-0.938503 -1.743615 -12.321779
-0.910551 -1.830860 -12.381275
-0.918388 -1.693029 -12.470738
-1.012203 -1.719881 -12.547016
-0.899413 -2.285644 -11.610831
-0.782974 -2.294709 -11.812181
-0.845857 -3.430680 -11.731812
-0.819630 -3.323601 -11.505605
-0.843368 -3.110637 -11.380678
-0.783203 -3.066333 -11.185139
-0.818371 -2.809132 -11.074166
-0.806693 -2.654509 -11.153763
-0.880497 -2.275359 -11.823881
-0.958256 -2.093646 -11.971427
-0.858009 -2.619371 -11.241592
-0.858892 -2.605245 -11.287409
-0.927394 -1.943577 -12.075696
-0.912300 -1.871478 -12.103632
-0.901938 -2.462847 -11.374754
-0.802460 -2.451883 -11.595068
-0.924378 -1.904783 -12.320759
-0.974381 -1.796406 -12.328063
-1.017647 -1.806167 -12.526832
-1.017151 -1.588583 -12.529447
-1.014294 -2.335424 -11.660269
-0.917612 -2.277587 -11.830067
-0.915447 -3.463313 -11.579734
-0.982391 -3.338373 -11.523724
-0.931995 -3.161029 -11.426233
-0.845823 -2.967565 -11.205452
-0.865000 -2.818474 -11.127906
-0.885436 -2.674185 -11.131352
-1.038225 -2.161053 -11.912495
-0.929989 -2.074047 -12.013026
-0.857768 -2.710225 -11.283346
-0.903830 -2.558763 -11.278331
-0.990332 -2.013264 -12.133951
-0.920606 -1.933595 -12.236760
-0.894157 -2.646601 -11.443045
-0.945988 -2.529957 -11.531311
-0.963120 -1.924758 -12.427305
-1.013881 -1.821263 -12.476585
-1.000558 -1.779484 -12.450362
-0.995872 -1.608856 -12.587489
-0.924257 -2.365027 -11.717135
-0.993747 -2.229097 -11.872704
-0.987237 -3.487853 -11.617590
-0.943185 -3.373167 -11.494364
-0.930567 -3.159698 -11.365628
-0.933056 -3.112681 -11.239017
-0.959621 -2.912643 -11.121557
-0.897885 -2.725363 -11.163045
-1.016639 -2.213875 -11.921765
-0.919134 -2.025699 -12.134752
-0.938345 -2.632657 -11.176638
-0.916836 -2.577209 -11.411102
-0.965071 -2.064926 -12.177329
-1.028123 -1.918519 -12.276565
-0.837789 -2.566635 -11.455863
-0.913372 -2.425774 -11.610278
-1.040609 -1.868373 -12.403447
-1.061182 -1.759318 -12.456279
-0.978789 -1.673242 -12.571613
-1.085915 -1.666804 -12.648620
-1.086675 -2.409782 -11.763826
-1.045597 -2.320105 -11.894383
-1.051925 -3.448160 -11.701659
-0.936146 -3.308357 -11.517471
-0.914288 -3.150451 -11.351854
-0.962813 -3.002653 -11.226282
-0.979836 -2.835176 -11.124478
-0.907165 -2.836953 -11.178969
-0.929562 -2.244173 -11.953181
-1.017086 -2.014339 -12.186569
-0.971345 -2.701690 -11.326662
-0.969387 -2.716931 -11.444926
-0.988606 -1.999916 -12.180597
-1.134120 -1.929436 -12.339333
-1.023533 -2.497280 -11.525536
-0.866671 -2.390427 -11.674060
-1.086680 -1.906803 -12.530206
-1.075091 -1.932597 -12.632534
-1.147325 -1.732866 -12.637019
-1.079470 -1.716950 -12.762729
-1.005419 -2.442030 -11.793632
-1.065623 -2.245012 -11.924180
-1.078130 -3.429864 -11.672424
-1.031592 -3.378380 -11.514172
-0.931050 -3.177976 -11.383644
-0.920184 -3.063149 -11.300556
-0.933445 -2.992105 -11.115969
-0.973645 -2.835991 -11.244714
-1.070695 -2.085123 -12.037617
-1.011237 -2.191473 -12.165803
-0.947911 -2.705124 -11.361497
-0.894753 -2.586959 -11.405155
-1.055366 -2.016078 -12.285180
-1.066264 -1.923634 -12.420168
-1.100553 -2.438945 -11.521543
-1.182305 -2.484203 -11.701051
-1.175441 -1.867234 -12.506515
-1.075679 -1.869505 -12.521115
-1.044422 -1.739598 -12.713418
-1.048006 -1.764714 -12.802341
-1.030856 -2.413011 -11.796749
-1.086854 -2.237756 -12.021613
-1.015798 -3.528482 -11.725755
-1.044968 -3.405914 -11.487779
-1.002721 -3.163932 -11.378822
-0.951967 -3.011115 -11.163462
-1.019480 -2.899399 -11.153710
-1.095619 -2.730811 -11.341460
-1.127073 -2.258567 -12.077985
-0.982774 -2.154544 -12.272563
-1.037662 -2.704087 -11.365417
-1.031428 -2.700792 -11.458683
-1.086529 -1.992792 -12.327324
-1.137663 -1.975996 -12.465883
-1.001584 -2.566539 -11.565685
-0.989354 -2.517656 -11.693296
-1.143233 -1.873984 -12.649507
-1.217850 -1.830199 -12.656396
-1.187844 -1.764533 -12.801995
-1.215445 -2.334652 -11.861378
-1.093200 -2.291738 -11.987696
-1.053937 -3.389967 -11.535276
-0.954113 -3.197798 -11.321163
-1.045717 -3.010881 -11.305803
-1.058943 -2.884148 -11.198358
-1.032979 -2.788863 -11.273844
-1.193031 -2.163335 -12.107740
-1.133950 -2.032553 -12.206651
-1.013764 -2.641325 -11.450249
-1.130519 -2.654486 -11.531255
-1.112226 -2.077084 -12.323104
-1.161889 -1.947765 -12.473420
-1.045456 -2.508979 -11.687383
-1.178830 -2.505457 -11.777434
-1.078117 -1.917602 -12.667385
-1.294850 -1.743863 -12.695829
-1.206722 -1.763904 -12.855738
-1.165840 -2.371851 -11.934768
-1.107320 -2.248028 -12.001921
-0.988856 -3.360161 -11.500867
-1.048318 -3.121286 -11.425990
-1.159496 -3.040477 -11.167179
-1.076578 -2.893414 -11.201185
-1.087766 -2.818419 -11.395600
-1.091128 -2.296879 -12.177202
-1.188698 -2.162995 -12.406729
-1.062246 -2.699368 -11.504975
-1.195883 -2.663296 -11.589774
-1.297259 -2.120615 -12.431222
-1.204875 -1.949584 -12.530951
-1.157367 -2.557847 -11.617061
-1.220024 -2.551131 -11.775127
-1.209653 -1.984875 -12.636445
-1.246865 -1.905256 -12.832824
-1.300321 -1.739642 -12.774781
-1.255252 -2.371456 -11.912766
-1.261863 -2.319533 -12.017978
-1.085097 -3.398931 -11.556695
-1.119544 -3.143969 -11.481346
-1.095219 -2.949738 -11.315288
-1.161328 -2.898087 -11.297394
-1.210351 -2.837805 -11.338620
-1.204611 -2.136318 -12.173238
-1.202502 -2.105734 -12.329751
-1.112551 -2.715436 -11.427632
-1.280308 -2.711438 -11.647851
-1.227344 -2.140617 -12.406901
-1.292063 -1.823866 -12.615486
-1.174866 -2.593518 -11.773310
-1.217163 -2.394997 -11.806811
-1.207185 -2.374799 -11.943843
-1.254316 -2.270605 -12.180623
-1.097441 -3.162157 -11.414948
-1.202594 -3.038419 -11.221229
-1.203185 -2.929170 -11.270675
-1.161792 -2.844446 -11.334987
-1.238637 -2.247327 -12.299773
-1.228051 -2.148417 -12.357350
-1.237261 -2.730506 -11.618175
-1.161708 -2.638825 -11.704921
-1.276893 -2.066961 -12.471590
-1.314315 -2.006934 -12.580135
-1.202966 -2.591181 -11.777948
-1.185604 -2.477804 -11.816085
-1.287153 -2.498315 -12.074419
-1.283982 -2.404116 -12.165407
-1.179521 -3.193797 -11.433164
-1.259223 -3.000775 -11.243032
-1.089498 -2.920318 -11.277253
-1.245140 -2.819441 -11.462721
-1.295073 -2.259649 -12.207495
-1.318029 -2.247100 -12.384811
-1.287901 -2.750762 -11.578658
-1.231559 -2.701787 -11.705976
-1.251885 -2.580835 -11.821985
-1.291359 -2.496320 -11.910551
-1.275310 -2.437680 -12.112595
-1.298712 -2.312754 -12.308511
-1.223618 -3.199101 -11.366709
-1.149727 -2.960485 -11.340335
-1.216402 -2.924796 -11.365135
-1.271103 -2.812111 -11.465255
-1.257915 -2.775003 -11.754380
-1.294846 -2.748981 -11.753272
-1.267537 -2.606531 -11.830619
-1.337610 -2.547207 -12.040569
-1.322894 -3.219636 -11.388678
-1.224717 -3.081403 -11.275910
-1.251475 -2.877747 -11.493657
-1.417217 -2.900085 -11.510856
-1.284802 -2.752516 -11.719198
-1.262118 -2.770352 -11.775562
-1.295965 -2.696659 -11.860629
-1.329774 -2.520275 -11.995806
-1.240790 -3.196030 -11.486704
-1.288597 -3.023445 -11.304367
-1.247849 -3.037708 -11.522668
-1.451660 -2.809891 -11.635171
-1.408606 -2.726394 -11.666741
-1.351759 -2.797604 -11.777016
-1.366634 -3.258320 -11.419878
-1.340524 -3.107031 -11.342478
-1.345586 -3.065969 -11.543804
-1.371923 -2.886908 -11.599214
-1.455858 -3.034775 -11.436900
-1.388999 -3.027012 -11.556976
1.327699 -3.325767 -11.350243
1.398985 -3.359431 -11.431187
1.398322 -3.222529 -11.556315
1.486274 -2.424486 -12.324411
1.474236 -2.339434 -12.494048
1.303846 -3.322711 -11.390446
1.315060 -3.263927 -11.408081
1.481376 -3.273941 -11.544400
1.521765 -3.155023 -11.690798
1.376362 -3.087778 -11.713395
1.424103 -2.978691 -11.700083
1.449648 -2.222026 -12.535361
1.619984 -2.134613 -12.737435
1.360779 -2.800026 -11.976069
1.378862 -2.740720 -12.063768
1.500213 -2.153486 -12.752810
1.554556 -2.001100 -12.820464
1.517436 -2.673459 -12.080747
1.508725 -2.627732 -12.149954
1.324295 -2.501573 -12.200879
1.462785 -2.376249 -12.392393
1.222279 -3.414298 -11.435342
1.332019 -3.279332 -11.343910
1.352544 -3.202569 -11.446451
1.330938 -3.147598 -11.520803
1.411290 -3.008577 -11.597527
1.427966 -2.819678 -11.789961
1.431871 -2.164635 -12.437604
1.393607 -2.202756 -12.607388
1.333851 -2.785187 -11.849413
1.380829 -2.717030 -11.960667
1.415549 -2.055090 -12.750815
1.511894 -1.992853 -12.872098
1.329417 -2.624880 -12.035852
1.453629 -2.626674 -12.143500
1.349718 -2.580656 -12.198800
1.397620 -2.366871 -12.370753
1.319926 -3.305993 -11.400246
1.174577 -3.292172 -11.265046
1.274648 -3.234517 -11.476750
1.371007 -3.027917 -11.521257
1.269317 -3.017621 -11.590651
1.319128 -2.932432 -11.685810
1.400189 -2.212797 -12.369673
1.472104 -2.122842 -12.543873
1.281765 -2.827018 -11.868723
1.289271 -2.717277 -11.927332
1.348359 -2.216078 -12.548120
1.448886 -2.057637 -12.692791
1.373828 -2.640824 -11.962131
1.449087 -2.616362 -12.069034
1.440948 -1.909280 -12.751817
1.347710 -2.429539 -12.178608
1.303280 -2.234149 -12.325444
1.328359 -3.338945 -11.404036
1.205879 -3.179866 -11.262539
1.191226 -3.105025 -11.342739
1.273717 -3.136578 -11.534049
1.214766 -2.976038 -11.581060
1.235637 -2.962384 -11.795237
1.374615 -2.269403 -12.310113
1.378839 -2.287175 -12.456699
1.352660 -2.770016 -11.738717
1.353612 -2.691171 -11.929008
1.393482 -2.110010 -12.501372
1.306024 -2.096655 -12.656139
1.348823 -2.594607 -11.998451
1.276445 -2.574823 -11.955119
1.309290 -1.853201 -12.714373
1.265936 -2.468958 -12.102820
1.316830 -2.358842 -12.244590
1.138385 -3.373564 -11.380755
1.129214 -3.231522 -11.283617
1.257995 -3.123992 -11.264678
1.239809 -3.134045 -11.319681
1.151103 -2.968842 -11.407613
1.245816 -2.975255 -11.644594
1.358531 -2.258301 -12.218879
1.340944 -2.145253 -12.436534
1.247770 -2.739494 -11.766714
1.115661 -2.673934 -11.665020
1.345762 -2.002961 -12.510258
1.312128 -1.924435 -12.566796
1.305957 -2.568905 -11.846479
1.311499 -2.554917 -11.937051
1.378358 -1.978396 -12.625099
1.309376 -2.489977 -12.081836
1.283339 -2.336743 -12.141777
1.094924 -3.341313 -11.434893
1.102540 -3.265992 -11.306791
1.177392 -3.037106 -11.314150
1.254432 -3.121731 -11.311116
1.194531 -3.024785 -11.469661
1.271485 -2.942048 -11.585446
1.311906 -2.243331 -12.150383
1.314548 -2.028349 -12.422750
1.203271 -2.793285 -11.723584
1.162510 -2.764212 -11.817944
1.303688 -2.047149 -12.419934
1.215478 -2.009314 -12.530117
1.199917 -2.684172 -11.907827
1.158777 -2.598674 -11.923668
1.240197 -1.868882 -12.527701
1.218901 -1.787578 -12.649820
1.244820 -2.365137 -11.974103
1.215712 -2.355829 -12.127918
1.230013 -3.369320 -11.461148
1.174153 -3.160969 -11.253289
1.169512 -3.071472 -11.199777
1.137019 -3.073679 -11.242109
1.115440 -2.940158 -11.472002
1.244478 -2.890301 -11.528178
1.270069 -2.239258 -12.216444
1.228832 -2.107325 -12.232772
1.124318 -2.740684 -11.538914
1.060078 -2.638609 -11.778134
1.333146 -1.961370 -12.369591
1.334940 -2.013571 -12.460988
1.184649 -2.604303 -11.766524
1.184388 -2.509452 -11.884519
1.222656 -1.925867 -12.529467
1.248499 -1.750796 -12.499049
1.196925 -2.468597 -11.948041
1.144166 -2.343795 -11.968999
1.135091 -3.469638 -11.325548
1.178950 -3.319189 -11.286737
1.170744 -3.083372 -11.216494
1.138380 -3.077072 -11.288020
1.077842 -2.927126 -11.362671
1.194250 -2.900401 -11.487264
1.103964 -3.534934 -11.534278
1.244577 -2.250550 -12.129264
1.209421 -2.167480 -12.282843
1.144747 -2.687009 -11.505090
1.234633 -2.643091 -11.673219
1.179217 -2.045689 -12.367020
1.162436 -1.930043 -12.425150
1.170065 -2.535473 -11.853161
1.215702 -2.490747 -11.772764
1.210992 -1.891282 -12.399937
1.173322 -1.821502 -12.424967
1.137264 -1.644042 -12.529577
1.130758 -2.452961 -11.885156
1.082596 -2.304713 -12.015781
1.142572 -3.376862 -11.372612
1.125075 -3.323535 -11.320816
1.001768 -3.115363 -11.191355
1.083152 -3.047835 -11.328526
1.055422 -2.916836 -11.347126
1.079680 -2.770881 -11.461079
1.100131 -3.561268 -11.572886
1.234882 -2.154326 -12.071587
1.144235 -2.166506 -12.183513
1.089969 -2.700751 -11.522566
1.107790 -2.688216 -11.589603
1.169776 -2.100371 -12.259547
1.286261 -1.962603 -12.393508
1.096910 -2.676595 -11.682508
1.301242 -2.578211 -11.796607
1.087028 -1.952150 -12.424517
1.220509 -1.850121 -12.449562
1.150720 -1.716797 -12.546845
1.109982 -2.403763 -11.863251
1.082936 -2.194955 -11.878014
1.060130 -3.413612 -11.440223
1.064491 -3.196170 -11.275450
1.067046 -3.084970 -11.131021
1.103209 -3.045026 -11.167749
1.027990 -2.851759 -11.309154
1.054044 -2.835405 -11.304417
1.028585 -3.551137 -11.456937
1.127969 -2.276136 -12.023128
1.114069 -2.139443 -12.033077
1.065390 -2.678566 -11.425411
1.111442 -2.672645 -11.511864
1.111306 -2.055774 -12.218047
1.081475 -1.983884 -12.366534
1.089033 -2.615478 -11.631166
1.038708 -2.608848 -11.794880
1.080946 -1.812590 -12.403588
1.184201 -1.758925 -12.470890
1.121933 -1.726570 -12.391798
1.093477 -1.627822 -12.585643
0.878855 -2.374736 -11.767718
1.088229 -2.188487 -11.882413
1.104208 -3.386323 -11.471726
0.984812 -3.229784 -11.219586
0.978618 -3.125020 -11.105836
0.969851 -2.913618 -11.060805
1.033618 -2.935434 -11.180702
0.954891 -2.719618 -11.367370
1.002969 -3.503082 -11.588746
1.012301 -2.205330 -11.953472
1.129011 -2.087246 -12.106586
0.917790 -2.630753 -11.339387
1.028428 -2.599337 -11.539116
1.089069 -2.077736 -12.166751
1.143420 -1.909105 -12.255899
1.015194 -2.530486 -11.537254
1.046881 -2.401429 -11.622608
1.089785 -1.797414 -12.284923
1.034341 -1.869343 -12.381920
1.054563 -1.820759 -12.424772
1.102358 -1.617283 -12.383982
1.053519 -2.408559 -11.787214
0.872008 -2.244029 -11.859224
1.037263 -3.341264 -11.384083
0.996618 -3.261342 -11.284761
0.938898 -3.077252 -11.147579
1.000573 -2.936339 -11.037630
0.959300 -2.890374 -11.262505
0.902835 -2.777918 -11.255730
0.998228 -3.557586 -11.659106
1.051919 -2.251196 -11.868843
0.990465 -2.063046 -12.018558
0.927813 -2.685823 -11.327551
0.972723 -2.610235 -11.478577
0.990911 -1.993704 -12.111526
1.044473 -1.962819 -12.105363
0.962891 -2.532551 -11.517847
1.010361 -2.462335 -11.595249
1.115898 -1.758472 -12.274070
1.011776 -1.693906 -12.335507
0.971656 -1.749104 -12.387412
1.063087 -1.626789 -12.381917
0.989227 -2.263792 -11.676307
0.965359 -2.247215 -11.798097
0.916413 -3.402461 -11.544379
0.854018 -3.259523 -11.221734
0.955978 -3.112233 -11.115534
0.875497 -2.984321 -11.052322
0.903684 -2.761790 -11.100848
0.908465 -2.723835 -11.335182
0.888008 -3.473235 -11.604564
1.019105 -2.176943 -11.875244
0.932618 -2.040142 -11.950752
0.898828 -2.733846 -11.420560
0.951596 -2.740871 -11.388741
0.968444 -2.016429 -12.042781
1.145955 -1.884210 -12.089301
0.955641 -2.516589 -11.515181
1.067358 -2.486997 -11.497474
0.945074 -1.507753 -12.423693
1.001502 -1.824439 -12.163866
1.005114 -1.781062 -12.313027
1.009386 -1.655609 -12.212104
0.971946 -1.584658 -12.319615
0.952301 -2.418427 -11.659455
0.955837 -2.301390 -11.741454
0.877325 -3.369089 -11.427915
0.908856 -3.320602 -11.195494
0.894291 -3.166568 -11.089055
0.951812 -3.026698 -10.947002
0.872214 -2.953034 -11.064310
0.917157 -2.797942 -11.229905
0.946021 -3.597027 -11.623368
0.979557 -2.165341 -11.774426
0.984498 -2.027601 -11.826858
0.860668 -2.653296 -11.253438
0.870240 -2.661599 -11.324466
0.930841 -2.017179 -11.895846
0.938701 -1.940746 -12.097585
0.882899 -2.511702 -11.447259
0.841539 -2.430184 -11.528022
1.051131 -1.656831 -12.427669
0.895058 -1.815003 -12.162980
0.940654 -1.709084 -12.120984
0.907352 -1.681611 -12.232864
0.867017 -1.622691 -12.352740
0.939800 -2.315734 -11.598089
0.946286 -2.193223 -11.591666
0.874720 -3.348974 -11.461260
0.968434 -3.297656 -11.261133
0.901291 -3.097325 -11.218891
0.918302 -2.973762 -10.995097
0.898990 -2.717503 -11.070547
0.836654 -2.796388 -11.165743
0.967679 -3.544992 -11.604515
0.774665 -2.195430 -11.720728
0.909762 -2.021669 -11.800118
0.838805 -2.635658 -11.284557
0.869618 -2.625862 -11.255669
0.858121 -2.009215 -12.022724
1.009388 -1.821684 -12.017823
0.951757 -2.440134 -11.379921
0.837480 -2.475142 -11.456914
0.991321 -1.472531 -12.301254
0.904921 -1.633783 -12.350308
0.895201 -1.807903 -12.150176
0.859156 -1.788959 -12.075008
0.928911 -1.690195 -12.161242
0.866469 -1.541456 -12.294128
0.795594 -2.258450 -11.572339
0.895013 -2.273213 -11.567243
0.971015 -3.452946 -11.481826
0.875495 -3.308021 -11.292609
0.878250 -3.056472 -11.167852
0.752426 -3.031379 -11.047121
0.857613 -2.884268 -10.963661
0.886681 -2.763562 -11.183830
0.858086 -3.592581 -11.520290
0.862445 -2.178665 -11.819566
0.872774 -2.044821 -11.809131
0.831187 -2.572070 -11.197358
0.911785 -2.514072 -11.228593
0.869025 -1.904232 -11.893354
0.772780 -1.793749 -11.926969
0.731972 -2.477509 -11.347261
0.786978 -2.347786 -11.444618
0.899831 -1.565435 -12.334037
0.915216 -1.420064 -12.306980
0.769654 -1.854160 -11.911507
0.863823 -1.744817 -11.991715
0.980764 -1.778250 -12.161162
0.889440 -1.620630 -12.223967
0.818911 -2.268771 -11.483984
0.814899 -2.274126 -11.617215
0.786726 -3.428901 -11.405192
0.803751 -3.154182 -11.339899
0.729901 -3.122619 -11.259923
0.775556 -2.923656 -11.027303
0.813771 -2.781818 -10.881930
0.748305 -2.742204 -11.065646
0.760697 -3.476321 -11.696538
0.862462 -2.044289 -11.638832
0.811340 -2.066259 -11.786642
0.797701 -2.561890 -11.153218
0.760360 -2.578254 -11.147581
0.874277 -1.974534 -11.843130
0.965568 -1.841522 -11.996905
0.880604 -2.481486 -11.223434
0.828519 -2.376806 -11.413566
0.938333 -1.457009 -12.156294
0.781303 -1.416360 -12.358130
0.810364 -1.766834 -11.926203
0.813013 -1.704540 -11.973591
0.845135 -1.641110 -12.058256
0.866703 -1.597989 -12.040135
0.771776 -2.366848 -11.550615
0.782049 -2.196200 -11.616532
0.832338 -3.402177 -11.413513
0.765251 -3.282062 -11.343721
0.802216 -3.125812 -11.197491
0.713902 -2.894703 -11.048483
0.812740 -2.853107 -10.871538
0.737635 -2.643701 -11.035921
0.736657 -3.756361 -11.869999
0.804657 -3.489908 -11.519197
0.772859 -2.133399 -11.605458
0.768483 -2.026323 -11.747575
0.744203 -2.560203 -11.132627
0.773868 -2.567967 -11.189648
0.840625 -1.951043 -11.764537
0.818486 -1.804637 -11.820089
0.708868 -2.436673 -11.221699
0.774655 -2.334383 -11.290919
0.830567 -1.532740 -12.169583
0.783457 -1.468896 -12.207721
0.705622 -1.383401 -12.262146
0.748788 -1.705122 -11.912434
0.813359 -1.780084 -11.958525
0.827426 -1.663371 -11.976749
0.739368 -1.534498 -12.044731
0.660818 -2.320853 -11.415563
0.721664 -2.249126 -11.414224
0.719335 -3.415983 -11.436103
0.724187 -3.187927 -11.229050
0.718864 -3.131557 -11.140159
0.725247 -2.941355 -11.091506
0.758207 -2.785817 -10.884357
0.784084 -2.679679 -11.021931
0.721576 -3.803693 -11.731998
0.809042 -3.620776 -11.645040
0.626632 -2.198149 -11.536473
0.743144 -2.041624 -11.644261
0.711642 -2.677227 -11.048933
0.725849 -2.471951 -11.193945
0.694222 -1.885745 -11.732365
0.706927 -1.874887 -11.829413
0.720070 -2.427678 -11.145753
0.839256 -2.470936 -11.291467
0.756887 -1.526398 -12.006683
0.711545 -1.490830 -12.120629
0.794143 -1.372392 -12.323582
0.694832 -1.820987 -11.819131
0.712034 -1.785409 -11.834838
0.726510 -1.640907 -11.937544
0.760015 -1.575555 -11.998184
0.797107 -2.315841 -11.384906
0.747655 -2.180070 -11.386409
0.718178 -3.357138 -11.312759
0.696420 -3.196553 -11.391398
0.740992 -3.031864 -11.166685
0.604261 -2.937669 -11.046770
0.669112 -2.764542 -10.937512
0.722271 -2.604303 -10.910932
0.672030 -3.795510 -11.832044
0.758412 -3.526163 -11.667771
0.699935 -2.058463 -11.525821
0.760788 -2.053345 -11.486581
0.685026 -2.614861 -10.968061
0.706101 -2.509915 -11.118630
0.632767 -1.952572 -11.708059
0.808074 -1.882015 -11.769205
0.723449 -2.395480 -11.093416
0.675877 -2.371374 -11.184783
0.801531 -1.534061 -12.105345
0.769182 -1.467883 -12.038633
0.671772 -1.448457 -12.148580
0.629704 -1.775533 -11.824691
0.664572 -1.691661 -11.978089
0.679907 -1.754551 -11.877604
0.704756 -1.606156 -12.083601
0.645795 -2.356760 -11.363125
0.796397 -2.108604 -11.492369
0.679265 -3.411391 -11.412642
0.595655 -3.328032 -11.319439
0.655045 -3.164847 -11.342879
0.594314 -3.037399 -10.998223
0.598279 -2.783057 -10.855041
0.635366 -2.672330 -10.961229
0.746429 -3.733217 -11.776991
0.688058 -3.594828 -11.559813
0.704131 -2.092989 -11.483421
0.641147 -2.014194 -11.522908
0.610217 -2.532613 -10.958308
0.592515 -2.571286 -10.901444
0.670302 -1.938440 -11.716238
0.631432 -1.775314 -11.747435
0.687566 -2.459162 -11.066053
0.598670 -2.384519 -11.211786
0.825367 -1.439843 -12.024971
0.755856 -1.430419 -12.103616
0.649098 -1.437810 -12.180915
0.721069 -1.350465 -12.187425
0.732029 -1.778999 -11.730545
0.732893 -1.733868 -11.861349
0.741243 -1.570946 -11.800885
0.633330 -1.552240 -11.951813
0.595393 -2.259877 -11.230136
0.678422 -2.089682 -11.413101
0.637905 -3.418181 -11.556061
0.478813 -3.273296 -11.313792
0.664812 -3.126052 -11.088847
0.598598 -3.022444 -11.044752
0.524341 -2.915938 -10.904580
0.637101 -2.674685 -10.746767
0.646280 -3.771010 -11.840349
0.666390 -3.676640 -11.795902
0.621078 -2.138860 -11.410972
0.698340 -2.090975 -11.571546
0.539219 -2.559171 -10.904771
0.581521 -2.543884 -11.019065
0.728148 -1.906080 -11.638119
0.588214 -1.856648 -11.665267
0.558912 -2.440658 -11.079590
0.673837 -2.421494 -11.122947
0.650325 -1.489119 -11.968483
0.601457 -1.403030 -11.976664
0.628409 -1.444437 -12.056736
0.629085 -1.311703 -12.068663
0.571332 -1.762009 -11.602172
0.586288 -1.628739 -11.829811
0.529611 -1.379272 -12.166239
0.661368 -1.623596 -11.868384
0.668757 -1.555410 -11.832337
0.567186 -2.247220 -11.270243
0.597077 -2.208936 -11.229933
0.508626 -3.262851 -11.468690
0.650049 -3.279664 -11.376200
0.619111 -3.119561 -11.154131
0.603190 -2.987209 -11.011858
0.543129 -2.775747 -10.910713
0.583189 -2.736445 -10.804770
0.664300 -3.773741 -11.799458
0.588242 -3.618382 -11.610255
0.580705 -2.098890 -11.339595
0.576851 -1.967013 -11.527585
0.598174 -2.580067 -10.862751
0.623709 -2.501449 -10.958154
0.611814 -1.875684 -11.541993
0.604395 -1.811365 -11.531194
0.697242 -2.376018 -10.924036
0.558165 -2.389738 -11.100032
0.490736 -1.382190 -11.904487
0.586953 -1.511175 -11.883608
0.528395 -1.433896 -12.028430
0.580064 -1.332032 -12.148811
0.452464 -1.778508 -11.611223
0.629964 -1.718295 -11.675542
0.611224 -1.286796 -12.060388
0.559767 -1.536614 -11.754334
0.537831 -1.577032 -11.787932
0.637404 -2.286078 -11.158852
0.604583 -2.206169 -11.141498
0.485204 -3.478456 -11.414155
0.566719 -3.247731 -11.263907
0.576408 -3.148185 -11.140809
0.609069 -2.920955 -11.083561
0.435903 -2.833917 -10.963400
0.534569 -2.639891 -10.726329
0.621455 -3.746786 -11.782173
0.651163 -3.439583 -11.654796
0.533114 -2.100530 -11.268833
0.649780 -1.986482 -11.483126
0.523793 -2.468205 -10.845210
0.490178 -2.470881 -10.973023
0.599543 -1.964166 -11.537908
0.489291 -1.692836 -11.514043
0.618149 -2.390621 -10.939763
0.535621 -2.331493 -11.000385
0.503734 -1.591851 -11.883746
0.540227 -1.429002 -11.972038
0.539183 -1.368050 -11.895252
0.563416 -1.373121 -11.997880
0.504071 -1.732184 -11.498990
0.523580 -1.735160 -11.669898
0.582102 -1.259543 -12.097826
0.557465 -1.608843 -11.769901
0.590050 -1.504241 -11.754019
0.481874 -2.221791 -11.231649
0.505823 -2.100337 -11.246815
0.535128 -3.421276 -11.481063
0.556475 -3.304608 -11.408858
0.498142 -3.080209 -11.229100
0.565375 -2.920650 -10.999796
0.432699 -2.802776 -10.924279
0.505505 -2.700300 -10.860132
0.467275 -3.748116 -11.909735
0.504248 -3.520065 -11.597071
0.468572 -2.086320 -11.307103
0.562121 -1.974272 -11.376722
0.491455 -2.598277 -10.771162
0.504931 -2.469764 -10.823313
0.570982 -1.844068 -11.440970
0.569063 -1.810726 -11.479396
0.479081 -2.325083 -10.890397
0.477842 -2.254803 -11.058132
0.484813 -1.434982 -11.726395
0.540004 -1.481382 -11.832265
0.483354 -1.291156 -11.900050
0.577444 -1.285938 -11.954807
0.508181 -1.736102 -11.543909
0.452416 -1.670606 -11.599301
0.503147 -1.207462 -12.111889
0.524321 -1.142405 -12.077618
0.504617 -1.609663 -11.691874
0.396365 -1.545455 -11.782512
0.474431 -2.168637 -11.042247
0.510706 -2.046375 -11.099449
0.575025 -3.400295 -11.410293
0.476053 -3.228993 -11.382756
0.471963 -3.118694 -11.168656
0.483163 -2.937379 -11.055239
0.388222 -2.815304 -10.986021
0.449325 -2.620006 -10.802445
0.530617 -3.809403 -11.904343
0.550372 -3.559407 -11.646659
0.481541 -1.961445 -11.191710
0.544358 -1.940646 -11.255447
0.474139 -2.575335 -10.801704
0.494493 -2.447507 -10.771988
0.451519 -1.888400 -11.400590
0.610499 -1.733790 -11.503505
0.531649 -2.383467 -10.891269
0.487072 -2.295406 -10.912942
0.499457 -1.458812 -11.795867
0.536917 -1.426785 -11.906322
0.477331 -1.329557 -11.903698
0.422712 -1.299796 -12.021391
0.481336 -1.640195 -11.513389
0.484460 -1.668907 -11.535966
0.502202 -1.207207 -11.932809
0.422317 -1.156044 -12.087377
0.430003 -1.532884 -11.667150
0.464913 -1.569408 -11.724762
0.418309 -2.177616 -11.021871
0.436453 -2.206095 -11.160958
0.424917 -3.410089 -11.472623
0.518245 -3.220595 -11.403114
0.426723 -3.139930 -11.127485
0.507736 -2.880716 -11.069969
0.449043 -3.942250 -12.037590
0.398931 -2.860447 -10.858553
0.398363 -2.617393 -10.682802
0.409552 -3.846928 -11.791327
0.446282 -3.578168 -11.595564
0.395980 -2.071220 -11.211470
0.423176 -2.032272 -11.203704
0.365454 -2.591531 -10.781550
0.440454 -2.383948 -10.750309
0.399832 -1.887925 -11.269691
0.414341 -1.794240 -11.380500
0.383947 -2.339694 -10.900029
0.395754 -2.335989 -10.890756
0.467194 -1.486267 -11.649282
0.421790 -1.450343 -11.780553
0.490890 -1.361876 -11.835574
0.407919 -1.285766 -11.877768
0.481956 -1.619021 -11.436316
0.426573 -1.598474 -11.456919
0.500441 -1.277744 -11.888124
0.510370 -1.212521 -12.120465
0.423810 -1.627488 -11.597924
0.449855 -1.547324 -11.637431
0.333178 -2.250373 -11.003380
0.419244 -2.120000 -10.983915
0.441970 -3.356213 -11.477891
0.492837 -3.249089 -11.317034
0.289253 -3.098118 -11.188564
0.373399 -2.956859 -11.075801
0.451883 -3.992436 -11.943783
0.322769 -2.817766 -10.960766
0.398559 -2.701040 -10.781100
0.438991 -3.685356 -11.791495
0.418405 -3.569955 -11.668240
0.366892 -1.942504 -11.090437
0.326157 -1.985682 -11.239780
0.322893 -2.539119 -10.708225
0.452016 -2.483946 -10.701377
0.372577 -1.877025 -11.216124
0.419305 -1.807136 -11.433164
0.454063 -2.386741 -10.810041
0.340652 -2.292520 -10.812369
0.381833 -1.488399 -11.634267
0.362763 -1.369345 -11.677454
0.432447 -1.427280 -11.707318
0.421291 -1.258695 -11.780811
0.397845 -1.699426 -11.432684
0.388049 -1.677885 -11.470351
0.328292 -1.126175 -11.849979
0.500345 -1.156193 -12.024997
0.378204 -1.635767 -11.536353
0.455330 -1.543954 -11.576374
0.423055 -1.082890 -12.061716
0.417804 -2.220883 -10.908202
0.352369 -2.139528 -10.994119
0.360031 -3.428598 -11.387310
0.339096 -3.277993 -11.341052
0.394564 -3.113900 -11.235750
0.427254 -2.997970 -11.194466
0.431995 -4.012883 -12.063993
0.402294 -2.869718 -10.930058
0.270588 -2.594695 -10.784348
0.430165 -3.827591 -11.817272
0.273542 -3.524248 -11.658079
0.445701 -2.048094 -11.081576
0.346317 -1.911495 -11.128752
0.425218 -2.483495 -10.722898
0.351921 -2.399707 -10.741522
0.394106 -1.877638 -11.254978
0.354346 -1.837850 -11.383355
0.347817 -2.417635 -10.798592
0.375542 -2.184901 -10.803430
0.300556 -1.426169 -11.501332
0.360319 -1.339720 -11.643009
0.275191 -1.341770 -11.672714
0.358769 -1.202389 -11.784246
0.319670 -1.695396 -11.325529
0.397574 -1.627926 -11.395352
0.281136 -1.161042 -11.888378
0.409252 -1.194230 -11.872465
0.357219 -1.665896 -11.481882
0.361360 -1.551319 -11.437273
0.410908 -1.084473 -12.029564
0.379333 -2.273954 -10.885490
0.251016 -2.154104 -10.944944
0.406718 -3.472090 -11.475311
0.376399 -3.263712 -11.387877
0.340542 -3.078680 -11.168286
0.368294 -2.932773 -11.154328
0.267759 -3.901350 -11.952545
0.366391 -2.824731 -10.984325
0.351227 -2.585159 -10.788761
0.356772 -3.741243 -11.800958
0.291051 -3.599722 -11.556607
0.359269 -2.037097 -11.063913
0.274393 -1.983624 -11.116449
0.261732 -2.494068 -10.636820
0.281998 -2.467428 -10.680132
0.350583 -1.828134 -11.226042
0.339059 -1.826458 -11.236446
0.266305 -2.381939 -10.670761
0.373867 -2.255785 -10.750820
0.298234 -1.471151 -11.499605
0.328692 -1.480000 -11.575898
0.238095 -1.338057 -11.686168
0.279833 -1.241305 -11.779653
0.361800 -1.732596 -11.239239
0.378728 -1.572156 -11.360302
0.290335 -1.283244 -11.789241
0.363462 -1.126292 -11.847718
0.388613 -1.575777 -11.446838
0.395329 -1.571722 -11.486084
0.342087 -1.095729 -11.939265
0.362151 -1.081954 -12.003452
0.329460 -2.191196 -10.849625
0.314807 -2.111029 -10.953795
0.232739 -3.404313 -11.408513
0.276075 -3.241505 -11.372521
0.269646 -3.134232 -11.218599
0.368613 -3.031963 -11.039877
0.380249 -3.919409 -11.898490
0.307660 -2.776822 -10.882486
0.242333 -2.580208 -10.718623
0.372989 -3.747838 -11.848357
0.350822 -3.572976 -11.602886
0.348536 -1.977776 -11.069817
0.178168 -1.985197 -11.048200
0.318882 -2.553030 -10.621290
0.179049 -2.340966 -10.556509
0.314028 -1.810654 -11.224038
0.316183 -1.759614 -11.230224
0.333267 -2.314863 -10.691228
0.366729 -2.398762 -10.732753
0.277686 -1.476293 -11.506984
0.200498 -1.424789 -11.613427
0.186155 -1.349173 -11.560703
0.295238 -1.160703 -11.651534
0.255435 -1.638382 -11.236085
0.260515 -1.578640 -11.268251
0.303353 -1.225678 -11.722019
0.222766 -1.227589 -11.750058
0.262638 -1.642043 -11.338154
0.340439 -1.496914 -11.378409
0.294471 -1.053479 -11.888761
0.307673 -0.991615 -11.831797
0.333392 -2.130971 -10.834887
0.279432 -2.118969 -10.932717
0.276194 -3.441873 -11.436708
0.318243 -3.285114 -11.377025
0.294711 -3.105225 -11.190254
0.255817 -3.045777 -11.023758
0.355375 -3.794714 -12.008552
0.324989 -2.769456 -10.934319
0.305348 -2.650601 -10.704907
0.284693 -3.678062 -11.838446
0.293681 -3.476737 -11.696385
0.318315 -1.922195 -10.928073
0.324109 -1.927429 -11.014038
0.258545 -2.594950 -10.547803
0.326324 -2.424984 -10.507788
0.373781 -1.854603 -11.072952
0.310824 -1.683772 -11.240148
0.167480 -2.344948 -10.633824
0.233664 -2.274006 -10.766328
0.300181 -1.288546 -11.437770
0.188818 -1.301027 -11.567818
0.250384 -1.344258 -11.528708
0.256197 -1.259931 -11.549563
0.331226 -1.612460 -11.217156
0.199202 -1.700097 -11.289221
0.292119 -1.187050 -11.623863
0.170855 -1.134303 -11.734097
0.186263 -1.591126 -11.426149
0.216211 -1.514910 -11.406610
0.225651 -1.115284 -11.734419
0.277097 -0.997593 -11.953294
0.279231 -0.961189 -11.892101
0.269298 -2.211905 -10.733387
0.240678 -2.130826 -10.846606
0.262035 -3.434874 -11.527387
0.194154 -3.316314 -11.369220
0.224751 -3.051411 -11.166944
0.321524 -2.898346 -11.132155
0.244256 -3.959222 -12.043208
0.306361 -2.914559 -10.854280
0.196070 -2.663322 -10.713021
0.242225 -3.708360 -11.815401
0.223328 -3.578803 -11.615086
0.165076 -2.056193 -10.891744
0.329951 -1.880516 -10.987006
0.236983 -2.493671 -10.753198
0.171527 -2.462570 -10.594297
0.259292 -1.818141 -11.057083
0.209749 -1.766043 -11.120406
0.196347 -2.348362 -10.661042
0.218889 -2.275697 -10.672756
0.219438 -1.422677 -11.441389
0.054364 -1.382580 -11.408605
0.241489 -1.280499 -11.513543
0.270731 -1.221351 -11.540570
0.280895 -1.630191 -11.169724
0.236632 -1.676684 -11.358098
0.276964 -1.123849 -11.614305
0.268450 -1.081608 -11.696206
0.287987 -1.542842 -11.290863
0.266906 -1.633904 -11.344148
0.195052 -0.940408 -11.702362
0.242862 -1.015234 -11.685173
0.190956 -0.977471 -11.860757
0.183529 -2.079287 -10.785123
0.278596 -2.016637 -10.747284
0.263997 -3.430511 -11.454696
0.136571 -3.192964 -11.304021
0.262252 -3.174206 -11.210758
0.210455 -2.985404 -11.134605
0.248973 -3.939964 -12.020968
0.174614 -2.831910 -10.878097
0.225006 -2.608382 -10.832244
0.190126 -3.691004 -11.806318
0.147599 -3.564111 -11.728160
0.192904 -2.002630 -10.881938
0.224248 -1.852874 -10.925277
0.186335 -2.528339 -10.683615
0.255894 -2.397101 -10.508738
0.221961 -1.796791 -11.081638
0.151329 -1.772514 -11.075884
0.218201 -2.305449 -10.556037
0.200981 -2.241311 -10.583668
0.269682 -1.380114 -11.370590
0.135289 -1.370645 -11.395315
0.211100 -1.357155 -11.341330
0.166242 -1.277781 -11.506187
0.195045 -1.638828 -11.094307
0.127757 -1.585336 -11.226403
0.115849 -1.201727 -11.593712
0.241693 -1.165670 -11.604335
0.163138 -1.529210 -11.304918
0.220851 -1.528558 -11.331655
0.128980 -0.950129 -11.747136
0.220215 -0.906103 -11.730922
0.169107 -0.919296 -11.851468
0.089259 -2.098910 -10.761836
0.231483 -2.001676 -10.771213
0.068790 -3.424027 -11.584373
0.206507 -3.217679 -11.372654
0.125130 -3.167880 -11.252365
0.183898 -2.940844 -11.163141
0.188454 -4.155222 -12.170840
0.169148 -3.911633 -11.979579
0.282221 -2.808534 -10.861016
0.228227 -2.644465 -10.872188
0.255495 -3.782332 -11.909713
0.186247 -3.566832 -11.646636
0.146975 -1.994507 -10.758318
0.123796 -1.876577 -10.891346
0.213793 -2.477288 -10.592032
0.234507 -2.416335 -10.603109
0.181436 -1.813543 -10.929835
0.193899 -1.752669 -11.078364
0.183230 -2.386007 -10.484599
0.096456 -2.246833 -10.537031
0.161933 -1.442059 -11.412888
0.170550 -1.356537 -11.399633
0.194516 -1.249324 -11.474327
0.042017 -1.208511 -11.636850
0.091811 -1.615473 -11.087301
0.086356 -1.572842 -11.146262
0.151797 -1.196615 -11.545635
0.223683 -1.094230 -11.553635
0.035812 -1.606682 -11.188470
0.187448 -1.402338 -11.190860
0.227476 -1.126790 -11.777631
0.101710 -0.953029 -11.772478
0.134414 -0.985697 -11.878204
0.134431 -2.090822 -10.562822
0.149593 -2.063855 -10.701483
0.191738 -3.400179 -11.528895
0.115420 -3.240127 -11.414876
0.131755 -3.052200 -11.230584
0.275728 -3.011650 -11.117981
0.156906 -4.179863 -12.162904
0.063724 -3.960493 -12.094543
0.222199 -2.813000 -10.988466
0.092363 -2.654549 -10.755555
0.187781 -3.748554 -11.807478
0.090497 -3.528530 -11.620671
0.057690 -2.013989 -10.750517
0.101971 -1.894008 -10.820120
0.198484 -2.532081 -10.587071
0.173202 -2.352698 -10.553439
0.066807 -1.766018 -10.834396
0.160118 -1.736633 -11.061248
0.063642 -2.334305 -10.518329
0.172345 -2.186933 -10.468821
0.104639 -1.378882 -11.445758
0.194729 -1.286545 -11.363741
0.224940 -1.279930 -11.556809
0.060577 -1.248879 -11.621115
0.167151 -1.641829 -11.015414
0.060608 -1.648210 -11.140805
0.028765 -1.132153 -11.655390
0.125906 -0.966372 -11.661527
0.127776 -1.566587 -11.195685
0.211070 -1.505130 -11.295966
0.128164 -1.088541 -11.774367
0.182410 -1.009628 -11.847238
0.075447 -2.121992 -10.635613
0.081753 -2.113180 -10.623788
0.148039 -3.370435 -11.457125
