# .PCD v0.7 - Point Cloud Data file format
VERSION 0.7
FIELDS x y z rgb label
SIZE 4 4 4 4 4
TYPE F F F F U
COUNT 1 1 1 1 1
WIDTH 1514
HEIGHT 1
VIEWPOINT 0 0 0 1 0 0 0
POINTS 1514
DATA ascii
-0.047735 -3.225760 -11.549860
-0.189612 -3.057264 -11.213979
-0.180804 -3.005681 -11.173094
0.080832 -4.083332 -12.276641
-0.002204 -3.931212 -12.015108
-0.011894 -2.809525 -10.916580
0.031912 -2.828056 -10.745375
-0.034231 -3.647815 -11.766470
-0.079175 -3.650906 -11.533434
-0.076800 -1.916063 -10.813352
-0.014619 -1.947896 -11.127505
-0.061593 -2.468018 -10.625665
-0.045513 -2.437564 -10.525567
-0.115468 -1.835457 -10.890149
0.086862 -1.797353 -11.163105
-0.253883 -2.272763 -10.552355
-0.065869 -2.240852 -10.525099
-0.078534 -1.377162 -11.531825
-0.056347 -1.477851 -11.641796
0.076361 -1.281326 -11.596471
0.000533 -1.173003 -11.744398
-0.109957 -1.624399 -11.186142
-0.028032 -1.621352 -11.385581
-0.047092 -1.178074 -11.859289
-0.103812 -1.063665 -11.920303
-0.170935 -1.609309 -11.437264
0.002425 -1.498206 -11.463458
0.013340 -1.129120 -11.947132
-0.060704 -2.107537 -10.731478
-0.000730 -2.176412 -10.820973
-0.021255 -3.468757 -11.492203
0.006898 -3.226222 -11.354460
-0.109219 -3.205488 -11.356243
-0.005656 -2.946144 -11.022845
-0.108968 -4.083883 -12.226375
-0.024971 -3.979955 -12.103995
-0.000942 -2.828919 -10.976842
0.121676 -2.690063 -10.823666
0.046907 -3.865366 -11.847065
-0.192985 -3.528441 -11.719375
-0.042233 -2.131578 -10.936149
-0.057954 -1.925715 -11.064175
-0.019743 -2.570022 -10.701837
-0.078397 -2.512290 -10.517838
-0.003751 -1.770626 -11.106384
-0.023702 -1.802713 -11.288703
-0.045985 -2.322448 -10.603687
-0.019658 -2.320041 -10.517148
-0.156886 -1.382707 -11.727860
-0.055716 -1.289870 -11.610595
-0.127505 -1.414206 -11.684769
-0.243441 -1.348448 -11.856362
-0.131922 -1.695529 -11.282248
-0.142313 -1.668320 -11.374699
-0.106594 -1.190145 -11.892698
-0.107851 -1.091070 -11.953658
-0.031702 -1.670457 -11.520166
-0.040707 -1.479267 -11.621266
-0.086004 -1.051346 -12.066253
-0.194143 -2.180440 -10.730615
-0.065596 -2.106231 -10.888270
-0.190616 -3.381355 -11.601911
-0.066676 -3.247554 -11.408254
-0.082488 -3.084482 -11.217007
-0.257196 -3.028139 -11.115617
-0.038711 -4.099202 -12.095800
-0.178926 -3.930584 -12.101711
-0.094596 -2.804308 -10.954089
-0.001526 -2.603553 -10.829168
-0.204690 -3.871976 -11.844352
0.020264 -3.487337 -11.642883
-0.196214 -1.938161 -10.978097
-0.231768 -1.909831 -11.101803
-0.081291 -2.571739 -10.681173
-0.089853 -2.321803 -10.640972
-0.171543 -1.863313 -11.090501
-0.168492 -1.770965 -11.226191
0.042025 -2.299437 -10.564093
-0.091800 -2.210412 -10.747973
-0.125874 -1.462564 -11.684833
-0.115213 -1.511266 -11.768905
0.013853 -1.353847 -11.869105
-0.179161 -1.286227 -11.850832
-0.140258 -1.756515 -11.439011
-0.228910 -1.641972 -11.507435
-0.177564 -1.141345 -11.883218
-0.065403 -1.158855 -12.064830
-0.210995 -1.579954 -11.519189
-0.220186 -1.442106 -11.564711
0.012788 -2.191654 -10.790565
-0.048760 -2.009111 -10.700381
-0.105976 -3.396181 -11.489237
-0.148117 -3.315187 -11.459019
-0.256840 -3.161186 -11.254392
-0.215798 -3.024561 -11.194694
-0.146559 -4.230622 -12.134026
-0.156752 -3.745152 -11.998203
-0.120467 -2.861447 -10.968729
-0.291335 -2.743431 -10.921601
-0.080090 -3.729039 -11.836260
-0.114357 -3.538389 -11.645227
-0.198465 -1.995023 -10.891433
-0.191534 -1.906903 -11.108147
-0.115087 -2.450292 -10.679782
-0.137395 -2.457165 -10.636284
-0.255102 -1.897699 -11.265845
-0.234398 -1.680279 -11.379952
-0.137829 -2.216077 -10.642727
-0.011031 -2.203875 -10.595217
-0.095057 -1.530068 -11.700089
-0.199280 -1.402739 -11.724923
-0.051505 -1.280286 -11.872027
-0.275629 -1.305920 -11.893290
-0.288661 -1.681698 -11.346322
-0.154254 -1.691645 -11.469463
-0.196415 -1.253307 -11.972416
-0.116590 -1.155478 -12.091918
-0.207903 -1.647919 -11.498193
-0.262695 -1.578079 -11.639822
-0.217555 -2.144702 -10.859406
-0.186718 -2.082284 -10.884385
-0.075442 -3.389820 -11.587431
-0.164832 -3.330403 -11.542454
-0.222930 -3.171661 -11.247050
-0.224430 -2.939494 -11.253303
-0.256374 -4.107047 -12.213912
-0.267608 -3.981373 -12.000321
-0.212328 -2.903277 -10.956641
-0.065086 -2.697364 -10.847721
-0.255783 -3.734440 -11.771558
-0.188975 -3.636128 -11.707367
-0.241186 -1.994640 -11.044078
-0.147041 -1.961139 -11.037015
-0.186855 -2.479098 -10.797366
-0.243434 -2.460997 -10.551373
-0.157296 -1.990972 -11.305003
-0.086554 -1.845806 -11.450448
-0.063682 -2.355084 -10.700228
-0.264060 -2.288757 -10.736503
-0.214871 -1.611509 -11.788487
0.005329 -1.424035 -11.810911
-0.173395 -1.348824 -11.962935
-0.166437 -1.330565 -11.952344
-0.214862 -1.794467 -11.400993
-0.114866 -1.657830 -11.506330
-0.242167 -1.104515 -12.001834
-0.279810 -1.251914 -12.208183
-0.239857 -1.565832 -11.515029
-0.329267 -1.597144 -11.755384
-0.249972 -2.237355 -10.869681
-0.137816 -1.989890 -10.975964
-0.155245 -3.252158 -11.525622
-0.117391 -3.268437 -11.463885
-0.205194 -3.215633 -11.346074
-0.149520 -3.088219 -11.157581
-0.216745 -4.011179 -12.114160
-0.262696 -3.941545 -12.172670
-0.222749 -2.756552 -10.959539
-0.264181 -2.728567 -10.962686
-0.169195 -3.686942 -11.985839
-0.225146 -3.769877 -11.813314
-0.189745 -2.084941 -11.020473
-0.065854 -1.941275 -11.184900
-0.205682 -2.538833 -10.719672
-0.155662 -2.307430 -10.670854
-0.138943 -1.817006 -11.173443
-0.163976 -1.820093 -11.451171
-0.060539 -2.322929 -10.706729
-0.219068 -2.202996 -10.475320
-0.359781 -1.459979 -11.799094
-0.274717 -1.421101 -11.799225
-0.163547 -1.345533 -11.946790
-0.294869 -1.212145 -12.018759
-0.166969 -1.629953 -11.451398
-0.320501 -1.587365 -11.634448
-0.327187 -1.209935 -12.060319
-0.211061 -1.117668 -12.122840
-0.283402 -1.551221 -11.820137
-0.306274 -1.520812 -11.688946
-0.306586 -2.204497 -10.825216
-0.220246 -2.125171 -10.890848
-0.254335 -3.310470 -11.516863
-0.092706 -3.169575 -11.416757
-0.166879 -3.213575 -11.200130
-0.333948 -3.031847 -11.235679
-0.300306 -4.146655 -12.249918
-0.274992 -3.922853 -12.019704
-0.232972 -2.865313 -11.058655
-0.174047 -2.539017 -10.813128
-0.093739 -3.846097 -11.873026
-0.188006 -3.497064 -11.699265
-0.242600 -2.055943 -11.080896
-0.280369 -1.937197 -11.254653
-0.282302 -2.587162 -10.745556
-0.336768 -2.414896 -10.573348
-0.280886 -1.931395 -11.410113
-0.280285 -1.821404 -11.388547
-0.223136 -2.294656 -10.651874
-0.188424 -2.259647 -10.847157
-0.419705 -1.472482 -11.930528
-0.353674 -1.472262 -11.873107
-0.227848 -1.502858 -11.931455
-0.362722 -1.387334 -12.021079
-0.225386 -1.710129 -11.493461
-0.211624 -1.608083 -11.581069
-0.221086 -1.319634 -12.211574
-0.265153 -1.602250 -11.687365
-0.268969 -1.576742 -11.716751
-0.319009 -2.193646 -11.034931
-0.213149 -1.997341 -11.070038
-0.271619 -3.341266 -11.530153
-0.250566 -3.359683 -11.283560
-0.273481 -3.035300 -11.347742
-0.249655 -3.040224 -11.082625
-0.330341 -3.897706 -12.038344
-0.271858 -2.869814 -10.970650
-0.258286 -2.592190 -10.896082
-0.406009 -3.755731 -11.903339
-0.197231 -3.709442 -11.627996
-0.385164 -1.978932 -11.171199
-0.114613 -1.887392 -11.270271
-0.243861 -2.521967 -10.647558
-0.219944 -2.463691 -10.735795
-0.171082 -1.769849 -11.266125
-0.338926 -1.758782 -11.564952
-0.377008 -2.463166 -10.864465
-0.187102 -2.265774 -10.932463
-0.372970 -1.521582 -11.893875
-0.376516 -1.432725 -11.986974
-0.387613 -1.303148 -12.001635
-0.293675 -1.282477 -12.272123
-0.230119 -1.768914 -11.605420
-0.266748 -1.720319 -11.754715
-0.386135 -1.152778 -12.148939
-0.458664 -1.451631 -11.692974
-0.246403 -1.508704 -11.855870
-0.283919 -2.292409 -10.996889
-0.429094 -2.114141 -11.064474
-0.374684 -3.324458 -11.569656
-0.235696 -3.414779 -11.386904
-0.127787 -3.161644 -11.283143
-0.330186 -2.881382 -11.213965
-0.288075 -3.981524 -12.048202
-0.346437 -2.795008 -10.997055
-0.363484 -2.790977 -11.020332
-0.384070 -3.844404 -11.982827
-0.103659 -3.550429 -11.711989
-0.350587 -2.096137 -11.112419
-0.187792 -1.937560 -11.302206
-0.370640 -2.556815 -10.843463
-0.244201 -2.449697 -10.662940
-0.329812 -1.997685 -11.311977
-0.381003 -1.794150 -11.427747
-0.257854 -2.319270 -10.843094
-0.360345 -2.286328 -10.919651
-0.442124 -1.484169 -11.833367
-0.437915 -1.376423 -11.995311
-0.313026 -1.391827 -12.112005
-0.381629 -1.273761 -12.133468
-0.413851 -1.764501 -11.606106
-0.226198 -1.725270 -11.637069
-0.433300 -1.274625 -12.145912
-0.257388 -1.695102 -11.678557
-0.227944 -1.610113 -11.853429
-0.363040 -2.192070 -10.980258
-0.415178 -2.066798 -11.230030
-0.341813 -3.319935 -11.639430
-0.520592 -3.274869 -11.458432
-0.271718 -3.172326 -11.267328
-0.143451 -2.939429 -11.075704
-0.371008 -3.923750 -12.127382
-0.205749 -2.811290 -11.008308
-0.312550 -2.776476 -10.899609
-0.432635 -3.743685 -12.070067
-0.336453 -3.618764 -11.729394
-0.485947 -2.092877 -11.182203
-0.298813 -2.000647 -11.397276
-0.377963 -2.541594 -10.785587
-0.313595 -2.525693 -10.879556
-0.404929 -1.807016 -11.484158
-0.368291 -1.861000 -11.571965
-0.306978 -2.491639 -10.832042
-0.334620 -2.342670 -10.883703
-0.423990 -1.372708 -12.006955
-0.405127 -1.462515 -12.050830
-0.472748 -1.369028 -12.125369
-0.416780 -1.372834 -12.326045
-0.243562 -1.670235 -11.659014
-0.498321 -1.810594 -11.834471
-0.480281 -1.255595 -12.207157
-0.416678 -1.673667 -11.834328
-0.442791 -1.482987 -11.967252
-0.302869 -2.204214 -11.097878
-0.195518 -2.174591 -11.141015
-0.369669 -3.322846 -11.487811
-0.507524 -3.287801 -11.487668
-0.435708 -3.105899 -11.346692
-0.302992 -3.055496 -11.324632
-0.507840 -3.900306 -12.156257
-0.358179 -2.900580 -11.051785
-0.343166 -2.688495 -10.883055
-0.357264 -3.776179 -11.870965
-0.430185 -3.656606 -11.715963
-0.433442 -2.296167 -11.324904
-0.270750 -2.092418 -11.331944
-0.448964 -2.544688 -10.770727
-0.387112 -2.439257 -10.680389
-0.300539 -1.874111 -11.437470
-0.350915 -1.831596 -11.635240
-0.359049 -2.427014 -10.812961
-0.469729 -2.367728 -11.050402
-0.327848 -1.455850 -11.989951
-0.436916 -1.446107 -12.015496
-0.420817 -1.403331 -12.104197
-0.460205 -1.265819 -12.231036
-0.367321 -1.755863 -11.738439
-0.479971 -1.671192 -11.782397
-0.362798 -1.641947 -11.819547
-0.373286 -1.536280 -11.871228
-0.503466 -2.094823 -11.170138
-0.375143 -2.249704 -11.052488
-0.405340 -3.307383 -11.534879
-0.536660 -3.378549 -11.502342
-0.477927 -3.122086 -11.262010
-0.480365 -2.962253 -11.145083
-0.573330 -3.906973 -12.166593
-0.186441 -2.839094 -11.135669
-0.452394 -2.801845 -10.943129
-0.435231 -3.812152 -11.999781
-0.419420 -3.683482 -11.754741
-0.550685 -2.102526 -11.300224
-0.410787 -1.980879 -11.346449
-0.324545 -2.547721 -10.679047
-0.370301 -2.451768 -10.732329
-0.420023 -1.784446 -11.476020
-0.384480 -1.789086 -11.487612
-0.411373 -2.420327 -11.033724
-0.384741 -2.309661 -10.885811
-0.379304 -1.578849 -12.042017
-0.460357 -1.508547 -12.255509
-0.610371 -1.392064 -12.235584
-0.381184 -1.177042 -12.299974
-0.370234 -1.723692 -11.725483
-0.574695 -1.622546 -11.765167
-0.539073 -1.560575 -11.916201
-0.502434 -1.650524 -11.905616
-0.567171 -2.172557 -11.152903
-0.408239 -2.252459 -11.147080
-0.505837 -3.443334 -11.586419
-0.470624 -3.318935 -11.533936
-0.503896 -3.170774 -11.326209
-0.429044 -2.956977 -11.148749
-0.487977 -2.801481 -10.970227
-0.334202 -2.698916 -10.756684
-0.543562 -3.749122 -11.893700
-0.550119 -3.629508 -11.747953
-0.481724 -2.038976 -11.248451
-0.454571 -1.977071 -11.356764
-0.372791 -2.478339 -10.717253
-0.386014 -2.461743 -10.844617
-0.469932 -1.847911 -11.555604
-0.324969 -1.854559 -11.672005
-0.389067 -2.364473 -10.901986
-0.400458 -2.260841 -11.017764
-0.567816 -1.546356 -12.230980
-0.525635 -1.431418 -12.118209
-0.459814 -1.542871 -12.224495
-0.489499 -1.370248 -12.394383
-0.422708 -1.727745 -11.754759
-0.589643 -1.763495 -11.879272
-0.453376 -1.695109 -11.934476
-0.579182 -1.725904 -11.955707
-0.421246 -2.154625 -11.129264
-0.563816 -2.192778 -11.360981
-0.552452 -3.378702 -11.570386
-0.502293 -3.162273 -11.374346
-0.629822 -3.194960 -11.469245
-0.525005 -2.982181 -11.208333
-0.518926 -2.824740 -11.024281
-0.446038 -2.863095 -10.863055
-0.526557 -3.715192 -12.029101
-0.486417 -3.522413 -11.774063
-0.476548 -2.081387 -11.240343
-0.533960 -2.056883 -11.585657
-0.408779 -2.506302 -10.849008
-0.522668 -2.622491 -10.958598
-0.484288 -1.909354 -11.624265
-0.526385 -1.757695 -11.853304
-0.462720 -2.529876 -10.981806
-0.430741 -2.359964 -11.006469
-0.442112 -1.518575 -12.152025
-0.655604 -1.521187 -12.363232
-0.589788 -1.404454 -12.227411
-0.528910 -1.796204 -12.032079
-0.463419 -1.744346 -11.938180
-0.419245 -1.571100 -12.020117
-0.634597 -1.585098 -12.048796
-0.525648 -2.232675 -11.334794
-0.451194 -2.138005 -11.403790
-0.532143 -3.344154 -11.607609
-0.535881 -3.366436 -11.524918
-0.593161 -2.984868 -11.385625
-0.577014 -2.995343 -11.166079
-0.492581 -2.872171 -11.053410
-0.380878 -2.700009 -10.965401
-0.587892 -3.886889 -11.896025
-0.554614 -3.639662 -11.875458
-0.446087 -2.002382 -11.471589
-0.549160 -1.887406 -11.392306
-0.462399 -2.506779 -10.801807
-0.564856 -2.386978 -10.925391
-0.537478 -2.050866 -11.802489
-0.526727 -1.891601 -11.839312
-0.478571 -2.416106 -10.938785
-0.571744 -2.442602 -11.159887
-0.478152 -1.503172 -12.171201
-0.669294 -1.475845 -12.175417
-0.586370 -1.461013 -12.267591
-0.539896 -1.894301 -11.843028
-0.608491 -1.707444 -12.055936
-0.504551 -1.663540 -11.942409
-0.494194 -1.626852 -12.199715
-0.581551 -2.386663 -11.358689
-0.492762 -2.208410 -11.292121
-0.615477 -3.426802 -11.590705
-0.559307 -3.279460 -11.526930
-0.626303 -3.042927 -11.280498
-0.582174 -3.018853 -11.160433
-0.499838 -2.967158 -11.060197
-0.531776 -2.748085 -10.884244
-0.544964 -3.701218 -11.966594
-0.699948 -3.570236 -11.768387
-0.606371 -2.160452 -11.359507
-0.719776 -1.941723 -11.638364
-0.465753 -2.460762 -10.864658
-0.469403 -2.582906 -11.104978
-0.538684 -1.950384 -11.761646
-0.573453 -1.969704 -11.829642
-0.512387 -2.470848 -11.061699
-0.540002 -2.387440 -11.206090
-0.717713 -1.425356 -12.254523
-0.629442 -1.491453 -12.302531
-0.689175 -1.270124 -12.346320
-0.509009 -1.787795 -12.021643
-0.554720 -1.712358 -12.036738
-0.605855 -1.495976 -12.123123
-0.579497 -1.707675 -12.071091
-0.622159 -2.190852 -11.235559
-0.595711 -2.269924 -11.483042
-0.446304 -3.406493 -11.535871
-0.631280 -3.315626 -11.428128
-0.517799 -3.092986 -11.307841
-0.636688 -3.073031 -11.231080
-0.373563 -2.801290 -11.218175
-0.480074 -2.839876 -10.843663
-0.686241 -3.771432 -12.042345
-0.522179 -3.611116 -11.795847
-0.471022 -2.080520 -11.470201
-0.572900 -1.976132 -11.671701
-0.522939 -2.521565 -10.982598
-0.698911 -2.574200 -10.823260
-0.636974 -1.845722 -11.747622
-0.631958 -1.862302 -11.763000
-0.600647 -2.357320 -11.115162
-0.661511 -2.279952 -11.203024
-0.641175 -1.509912 -12.360381
-0.701012 -1.505034 -12.310831
-0.726229 -1.375975 -12.386941
-0.660662 -1.793216 -11.975232
-0.727316 -1.828191 -12.002138
-0.656223 -1.624250 -12.053288
-0.751317 -1.477756 -12.007132
-0.627962 -2.316054 -11.372144
-0.678572 -2.255807 -11.563524
-0.523617 -3.379159 -11.520825
-0.586599 -3.275605 -11.504844
-0.658596 -3.209033 -11.274022
-0.593172 -2.923453 -11.122792
-0.510968 -2.895425 -11.071193
-0.421519 -2.785344 -10.814558
-0.681651 -3.817427 -11.859186
-0.648559 -3.785826 -11.806673
-0.509684 -2.082553 -11.543386
-0.686332 -1.979986 -11.608209
-0.625028 -2.561142 -10.906938
-0.699970 -2.422572 -11.070308
-0.692536 -1.883828 -11.739904
-0.649166 -1.893524 -11.912888
-0.611960 -2.437532 -11.223042
-0.647855 -2.306846 -11.294337
-0.624549 -1.578274 -12.379224
-0.781308 -1.483257 -12.429614
-0.782152 -1.777802 -12.081526
-0.752421 -1.716474 -11.999512
-0.693390 -1.739973 -12.020023
-0.553177 -1.703885 -12.263669
-0.601711 -2.306595 -11.452436
-0.652724 -2.082712 -11.467311
-0.558964 -3.319985 -11.743557
-0.672909 -3.304472 -11.606232
-0.603706 -3.112221 -11.181259
-0.653059 -3.098002 -11.271131
-0.591463 -2.824212 -11.050562
-0.645321 -2.777902 -10.863688
-0.641306 -3.558910 -11.666594
-0.657149 -2.053519 -11.658485
-0.690530 -2.057513 -11.767679
-0.604729 -2.565352 -11.008159
-0.600352 -2.614050 -11.063722
-0.726632 -2.057524 -11.868218
-0.745217 -1.990153 -11.959412
-0.539046 -2.352713 -11.019284
-0.553650 -2.544858 -11.215469
-0.822748 -1.622407 -12.430352
-0.648833 -1.535900 -12.508863
-0.767469 -1.802687 -12.050425
-0.747507 -1.769156 -12.266339
-0.704059 -1.707528 -12.240238
-0.750259 -1.593909 -12.217196
-0.709006 -2.287307 -11.367970
-0.660679 -2.121573 -11.626136
-0.644810 -3.373032 -11.652745
-0.720623 -3.406782 -11.382792
-0.780564 -3.147932 -11.427787
-0.583004 -3.103901 -11.090647
-0.648655 -2.900903 -11.188559
-0.585143 -2.702288 -11.011535
-0.750024 -3.619346 -11.880462
-0.554778 -2.065830 -11.664636
-0.773869 -2.022132 -11.627007
-0.592873 -2.527418 -11.180768
-0.667927 -2.482330 -11.076698
-0.638994 -2.021922 -11.905907
-0.782001 -1.920771 -12.178258
-0.579214 -2.349999 -11.139667
-0.793124 -2.491813 -11.371087
-0.660760 -1.618029 -12.373779
-0.864975 -1.559893 -12.399576
-0.926014 -1.773307 -12.017935
-0.880516 -1.822056 -12.232170
-0.759988 -1.733690 -12.121206
-0.714336 -1.802289 -12.318834
-0.700485 -2.393189 -11.535033
-0.617759 -2.180894 -11.581693
-0.708792 -3.322166 -11.627242
-0.859082 -3.200093 -11.508560
-0.627629 -3.106570 -11.285883
-0.827409 -3.045388 -11.214717
-0.728513 -2.859012 -11.195173
-0.782086 -2.677398 -10.947026
-0.804504 -3.551724 -11.848833
-0.658067 -2.160118 -11.660194
-0.858619 -2.075063 -11.768383
-0.604174 -2.648701 -11.011444
-0.856585 -2.534220 -11.119114
-0.805563 -1.994951 -11.906760
-0.745732 -1.965870 -12.032183
-0.681641 -2.527474 -11.193765
-0.719736 -2.496282 -11.331845
-0.819974 -1.573605 -12.465852
-0.807045 -1.456798 -12.507303
-0.876886 -1.749374 -12.086614
-0.847562 -1.683788 -12.261472
-0.868005 -1.663483 -12.208405
-0.783667 -1.673897 -12.357060
-0.774066 -2.217274 -11.451739
-0.777261 -2.264138 -11.719338
-0.834792 -3.354797 -11.597632
-0.790795 -3.221647 -11.533526
-0.716799 -3.087394 -11.399331
-0.761974 -2.992296 -11.271047
-0.646084 -2.748355 -11.049101
-0.709999 -2.802489 -10.903856
-0.798739 -3.682438 -11.740163
-0.754798 -2.195627 -11.846252
-0.688500 -1.996396 -11.749282
-0.756761 -2.574477 -11.135609
-0.760378 -2.621798 -11.169922
-0.716914 -1.943757 -11.974706
-0.813123 -1.894311 -12.132115
-0.785211 -2.439717 -11.349615
-0.635902 -2.469453 -11.303017
-0.888615 -1.476668 -12.541844
-0.837174 -1.811088 -12.226412
-0.714425 -1.758208 -12.242293
-0.862877 -1.757112 -12.408665
-1.046405 -1.652780 -12.374977
-0.776322 -2.251884 -11.507061
-0.824933 -2.088188 -11.752256
-0.676658 -3.495187 -11.529038
-0.770105 -3.425311 -11.623966
-0.767912 -3.094153 -11.397237
-0.710726 -2.967211 -11.187056
-0.708138 -2.838294 -11.084831
-0.768437 -2.718281 -10.965758
-0.828633 -3.663961 -11.834318
-0.692083 -2.159063 -11.770184
-0.589377 -2.132148 -11.866253
-0.775814 -2.454149 -11.129102
-0.682429 -2.475976 -11.272504
-0.845598 -2.012016 -11.831781
-0.841746 -2.057705 -11.974551
-0.773408 -2.453347 -11.477633
-0.898443 -2.414692 -11.462891
-0.811800 -1.395898 -12.486686
-0.855672 -1.788828 -12.084831
-0.866538 -1.707542 -12.314117
-0.922989 -1.645423 -12.438595
-0.822560 -1.569286 -12.541477
-0.916524 -2.285568 -11.735196
-0.899069 -2.173847 -11.743829
-0.790247 -3.311875 -11.558202
-0.802368 -3.274220 -11.590475
-0.794849 -3.097101 -11.440685
-0.855663 -3.139879 -11.248459
-0.764187 -2.796826 -10.957158
-0.854850 -2.718055 -10.977125
-0.875811 -3.597601 -12.047797
-0.875723 -2.188614 -11.798554
-0.848089 -2.016512 -11.918401
-0.853116 -2.724663 -11.175294
-0.875192 -2.621188 -11.259717
-0.927042 -1.967345 -11.979164
-0.736349 -1.889728 -12.082732
-0.696611 -2.513867 -11.421618
-0.881287 -2.364159 -11.494931
-0.942073 -1.478510 -12.765880
-0.929420 -1.909160 -12.272108
-0.997241 -1.719251 -12.447315
-1.048248 -1.759217 -12.435268
-0.965612 -1.562335 -12.486290
-0.936663 -2.245382 -11.615929
-0.881427 -2.218866 -11.795009
-0.869750 -3.377612 -11.652405
-0.796232 -3.299804 -11.661749
-0.826736 -3.107611 -11.420451
-0.835807 -2.966300 -11.332721
-0.849105 -2.930678 -11.076747
-0.869184 -2.774267 -11.165154
-0.838570 -2.113180 -11.847925
-0.834254 -2.169146 -11.865347
-0.894330 -2.744361 -11.183886
-0.852898 -2.478617 -11.285028
-0.814142 -1.958965 -12.092082
-0.862793 -1.976587 -12.243252
-0.856727 -2.502183 -11.445770
-0.859574 -2.417632 -11.443602
-0.898725 -1.891010 -12.392853
-1.099316 -1.945781 -12.372294
-1.012174 -1.810073 -12.447134
-1.124117 -1.745675 -12.619082
-0.975269 -2.301859 -11.737401
-0.855528 -2.248960 -11.844097
-0.862747 -3.414624 -11.657622
-0.952027 -3.247049 -11.534593
-1.038053 -3.225902 -11.489893
-0.740997 -2.922861 -11.287496
-0.741191 -2.942592 -10.970945
-0.794948 -2.704457 -11.105607
-0.972636 -2.161367 -11.914350
-1.016035 -2.095397 -12.008966
-0.753299 -2.594513 -11.339145
-0.895388 -2.622954 -11.412192
-0.990327 -1.966977 -12.220785
-1.022786 -1.984999 -12.209648
-0.875776 -2.499285 -11.439126
-0.965699 -2.494113 -11.345619
-0.891555 -1.859762 -12.307786
-1.110813 -1.746625 -12.559553
-1.089280 -1.766903 -12.675186
-0.965269 -1.667674 -12.617954
-0.925892 -2.436282 -11.763961
-0.873927 -2.161564 -11.835602
-0.977909 -3.489240 -11.631848
-0.936842 -3.352661 -11.414027
-0.887508 -3.143048 -11.374615
-0.970060 -3.017507 -11.258363
-0.854125 -2.853952 -10.996209
-0.865963 -2.766568 -11.151785
-0.926565 -2.065820 -11.871321
-1.037547 -2.113912 -11.962982
-1.027212 -2.586148 -11.256096
-0.981141 -2.690396 -11.443298
-1.046974 -1.973008 -12.288110
-0.998224 -1.899530 -12.326468
-0.907934 -2.506026 -11.509833
-0.999449 -2.557870 -11.446793
-1.166090 -1.928638 -12.362210
-1.021390 -1.816787 -12.620371
-1.092278 -1.708487 -12.533797
-0.986864 -1.697549 -12.773973
-0.955855 -2.403009 -11.769406
-1.053022 -2.378454 -11.956683
-1.076155 -3.455533 -11.631411
-1.005602 -3.345694 -11.526536
-0.941500 -3.128298 -11.345230
-0.868710 -3.036761 -11.303721
-0.929192 -2.860382 -11.158002
-0.908604 -2.824988 -11.098537
-0.996127 -2.285309 -12.013866
-0.932570 -2.242872 -11.991060
-0.908507 -2.763544 -11.284864
-0.933661 -2.476899 -11.390287
-1.039948 -1.989222 -12.222947
-1.064863 -2.009188 -12.437932
-0.841659 -2.517663 -11.541881
-0.949944 -2.436025 -11.674898
-1.195891 -1.850242 -12.528933
-1.133718 -1.800193 -12.511608
-1.243829 -1.771875 -12.668827
-1.093850 -1.708829 -12.761871
-0.997532 -2.276610 -11.765343
-0.974627 -2.324263 -12.077915
-1.038780 -3.523837 -11.729398
-0.991953 -3.273217 -11.494277
-1.021953 -3.167866 -11.304820
-0.950021 -3.089792 -11.269934
-1.034124 -2.995567 -11.132757
-0.881483 -2.790584 -11.333371
-1.073632 -2.221144 -12.008953
-1.054697 -2.196207 -12.195288
-0.979053 -2.654132 -11.315917
-1.093847 -2.638821 -11.548736
-1.000269 -1.999799 -12.164876
-1.057215 -1.880439 -12.434512
-1.141828 -2.555890 -11.614607
-1.005988 -2.542361 -11.653506
-1.232616 -1.814079 -12.518917
-1.095237 -1.687271 -12.533751
-1.138019 -1.877963 -12.655029
-1.123153 -1.714476 -12.826559
-1.028238 -2.480444 -11.896395
-0.986914 -2.236384 -11.990010
-1.056955 -3.454023 -11.562980
-1.075598 -3.351884 -11.503761
-1.091874 -3.056565 -11.362141
-1.120414 -3.105217 -11.150979
-1.011942 -2.818132 -11.332853
-1.025023 -2.761790 -11.217387
-1.222330 -2.352219 -12.054276
-1.193882 -2.087366 -12.120683
-1.020166 -2.748239 -11.486656
-1.022570 -2.683180 -11.510590
-1.133323 -2.005757 -12.252555
-1.083928 -1.902455 -12.425093
-1.034252 -2.606928 -11.615421
-0.951236 -2.540125 -11.674329
-1.227110 -1.867032 -12.563105
-1.228717 -1.867181 -12.661455
-1.231702 -1.840742 -12.660521
-1.247692 -2.498110 -11.860588
-1.139151 -2.250493 -11.978941
-1.116380 -3.279927 -11.506190
-1.167572 -3.251680 -11.368867
-0.912849 -3.228133 -11.425858
-0.968933 -2.886135 -11.157533
-1.065400 -2.818467 -11.396466
-1.177117 -2.298936 -12.013147
-0.988073 -2.185794 -12.053424
-1.132274 -2.664933 -11.492534
-1.060383 -2.611762 -11.555441
-1.065745 -1.984568 -12.394091
-1.373036 -1.969643 -12.499364
-1.026766 -2.556473 -11.648335
-1.114133 -2.440100 -11.768688
-1.219646 -1.998117 -12.667329
-1.328467 -1.688054 -12.807890
-1.110786 -1.781787 -12.789111
-1.170159 -2.467300 -11.941629
-1.116309 -2.296778 -12.029181
-0.999854 -3.274558 -11.564821
-1.065486 -3.181284 -11.510780
-1.074317 -3.002862 -11.238722
-1.083044 -2.810282 -11.268662
-1.022137 -2.760759 -11.268675
-1.288926 -2.191331 -12.181854
-1.263410 -2.063526 -12.376358
-1.046874 -2.669351 -11.506992
-1.193138 -2.745706 -11.531327
-1.196498 -2.056249 -12.312523
-1.041051 -1.865040 -12.551191
-1.172261 -2.630421 -11.725781
-1.079329 -2.550913 -11.861137
-1.322847 -1.843058 -12.677991
-1.207451 -1.946217 -12.746767
-1.277023 -1.727100 -12.756935
-1.278145 -2.351442 -11.948063
-1.128710 -2.352021 -12.116355
-1.231468 -3.466069 -11.550649
-1.128445 -3.058395 -11.362196
-1.157083 -2.935351 -11.174832
-1.059541 -2.854433 -11.241872
-1.018475 -2.659644 -11.339535
-1.121639 -2.179622 -12.200642
-1.175011 -2.287814 -12.308080
-1.085392 -2.747280 -11.463573
-1.234043 -2.695908 -11.598063
-1.183310 -2.012791 -12.347605
-1.264114 -1.802062 -12.660808
-1.179140 -2.540088 -11.712009
-1.172657 -2.604791 -11.886446
-1.220605 -2.392170 -12.056360
-1.173388 -2.319297 -12.092052
-1.201359 -3.214691 -11.418139
-1.228837 -2.927987 -11.336199
-0.953282 -2.948154 -11.223291
-1.202124 -2.808054 -11.450033
-1.296744 -2.083130 -12.270142
-1.396683 -2.141043 -12.371308
-1.044058 -2.765693 -11.490563
-1.330575 -2.739544 -11.711394
-1.358526 -2.036505 -12.584449
-1.324644 -1.959934 -12.639495
-1.139819 -2.624058 -11.768260
-1.295306 -2.534821 -11.766142
-1.236398 -2.482705 -11.949649
-1.381142 -2.241984 -12.308724
-1.218568 -3.066215 -11.374348
-1.289494 -3.032236 -11.304239
-1.231823 -2.960804 -11.404650
-1.223481 -2.768997 -11.601258
-1.272062 -2.199017 -12.363524
-1.280916 -2.044774 -12.333496
-1.192126 -2.707765 -11.864457
-1.313878 -2.701993 -11.700122
-1.211599 -2.584600 -11.731368
-1.342883 -2.558944 -11.974693
-1.386628 -2.314032 -12.173882
-1.292724 -2.310375 -12.139475
-1.306285 -3.126673 -11.492771
-1.125322 -2.987119 -11.249344
-1.287668 -2.912944 -11.473302
-1.389140 -2.727597 -11.511804
-1.379917 -2.699949 -11.720004
-1.209626 -2.668016 -11.762374
-1.303621 -2.596381 -11.887606
-1.283304 -2.495747 -11.836953
-1.313712 -3.262234 -11.328662
-1.357851 -3.077500 -11.257719
-1.387583 -2.908104 -11.493563
-1.216622 -2.762274 -11.472942
-1.372970 -2.751193 -11.730155
-1.337004 -2.653890 -11.873898
-1.273700 -2.588956 -11.813841
-1.320924 -2.399925 -12.037972
-1.319735 -3.180653 -11.443021
-1.346718 -3.012673 -11.305748
-1.295113 -2.929922 -11.530369
-1.230094 -2.883397 -11.562557
-1.393467 -2.858365 -11.759212
-1.367384 -2.796097 -11.830955
-1.422430 -3.219257 -11.414799
-1.470550 -3.047596 -11.456800
-1.368672 -2.942102 -11.534317
-1.470913 -2.920754 -11.660815
-1.439292 -2.994591 -11.301622
-1.410317 -2.906530 -11.541932
1.397715 -3.481850 -11.204903
1.434871 -3.301626 -11.412244
1.272763 -3.279105 -11.597925
1.368797 -2.403617 -12.222386
1.397913 -2.497897 -12.436914
1.405827 -3.396814 -11.310693
1.207887 -3.248911 -11.476549
1.481815 -3.137639 -11.419692
1.413331 -3.220596 -11.630705
1.376031 -3.131820 -11.778912
1.348330 -2.912125 -11.824601
1.400736 -2.309481 -12.526185
1.547078 -2.169066 -12.667494
1.531200 -2.850611 -12.081189
1.388589 -2.781572 -11.948435
1.552035 -2.185649 -12.774140
1.576769 -1.897589 -12.720990
1.551866 -2.586594 -12.117293
1.593442 -2.563173 -12.107989
1.421910 -2.628459 -12.238664
1.522261 -2.431222 -12.333678
1.419433 -3.191228 -11.393815
1.292444 -3.248060 -11.415151
1.383036 -3.091292 -11.489412
1.282981 -3.063050 -11.561782
1.378330 -3.068121 -11.676789
1.411327 -2.824514 -11.712447
1.560756 -2.355893 -12.547342
1.487384 -2.172188 -12.547817
1.400333 -2.797456 -12.066936
1.386189 -2.763736 -11.884728
1.460799 -2.171293 -12.667366
1.430199 -1.982894 -12.783791
1.379072 -2.544079 -12.027565
1.378178 -2.655672 -12.198609
1.412532 -2.518945 -12.135965
1.559023 -2.306680 -12.209399
1.175855 -3.459092 -11.451858
1.308182 -3.284629 -11.268976
1.354617 -3.172479 -11.351568
1.374517 -3.085039 -11.509538
1.265697 -2.923078 -11.551580
1.411644 -2.955939 -11.625234
1.481571 -2.197695 -12.283429
1.404032 -2.124058 -12.582681
1.305693 -2.745883 -11.870264
1.308743 -2.781087 -11.951768
1.485668 -2.133624 -12.469315
1.478103 -2.000479 -12.689031
1.394838 -2.589483 -11.983452
1.563088 -2.503894 -12.089205
1.457831 -1.858545 -12.754980
1.242040 -2.389286 -12.100515
1.448010 -2.269120 -12.298434
1.296182 -3.262604 -11.335749
1.168638 -3.185457 -11.256871
1.299390 -3.217847 -11.332445
1.190958 -3.040176 -11.423481
1.168238 -3.060441 -11.666221
1.307028 -2.901371 -11.637049
1.446875 -2.123196 -12.390109
1.350524 -2.368305 -12.404436
1.407222 -2.818302 -11.822590
1.243976 -2.784092 -11.839277
1.393239 -2.015484 -12.687049
1.406323 -1.892843 -12.622529
1.367383 -2.461822 -11.967910
1.295209 -2.438278 -12.134254
1.297881 -1.881041 -12.697206
1.124609 -2.477716 -12.124627
1.298077 -2.243895 -12.276230
1.182343 -3.316239 -11.413377
1.229764 -3.225287 -11.234012
1.288467 -3.165103 -11.240668
1.334911 -2.926615 -11.414868
1.295005 -3.060199 -11.476735
1.250227 -2.744741 -11.575245
1.506277 -2.253558 -12.174984
1.330649 -2.114515 -12.422823
1.168829 -2.744341 -11.751744
1.148662 -2.782792 -11.702015
1.407020 -2.122351 -12.506343
1.390606 -2.022093 -12.494305
1.186611 -2.567642 -11.884859
1.238911 -2.598005 -12.052359
1.304046 -1.885846 -12.533736
1.339788 -2.451862 -12.178178
1.248690 -2.495069 -12.213626
1.269696 -3.394866 -11.340001
1.153420 -3.211615 -11.275715
1.145904 -3.187060 -11.123684
1.130299 -3.092220 -11.278173
1.241473 -2.952787 -11.422924
1.124216 -2.791665 -11.605503
1.194260 -2.252283 -12.222057
1.292781 -2.237336 -12.467458
1.163617 -2.794277 -11.633240
1.179130 -2.621135 -11.753756
1.288984 -1.998875 -12.418857
1.353674 -1.911863 -12.567183
1.262662 -2.652641 -11.888740
1.216079 -2.549698 -11.896410
1.326561 -1.796726 -12.621049
1.260919 -1.847213 -12.628007
1.109533 -2.484696 -11.962614
1.160390 -2.174867 -12.192251
1.245988 -3.423415 -11.322463
1.174560 -3.178336 -11.229405
1.275056 -3.189784 -11.252284
1.093382 -3.099607 -11.368100
1.164479 -2.930352 -11.579074
1.252753 -2.849040 -11.485307
1.369241 -2.279036 -12.101720
1.368691 -2.255765 -12.234007
1.189286 -2.646672 -11.627694
1.268526 -2.699740 -11.687996
1.233280 -2.048811 -12.463153
1.223616 -1.940170 -12.423308
1.249960 -2.679042 -11.677042
1.222766 -2.443065 -11.948276
1.324679 -1.739220 -12.408587
1.116159 -1.739793 -12.497287
1.252086 -2.486736 -11.796225
1.156068 -2.241272 -12.079542
1.205362 -3.412526 -11.512976
1.182746 -3.120368 -11.317428
1.179910 -3.030502 -11.162815
1.054132 -2.894412 -11.311399
1.134681 -3.004143 -11.406091
1.175158 -2.790300 -11.373657
1.178339 -3.503406 -11.439765
1.256083 -2.125990 -11.906198
1.240439 -2.068373 -12.253189
1.210012 -2.720927 -11.622949
1.080636 -2.681061 -11.541278
1.337847 -2.039694 -12.298428
0.984226 -1.937132 -12.370732
1.213775 -2.610408 -11.742194
1.200204 -2.530042 -11.879762
1.169562 -1.845475 -12.348727
1.217223 -1.740952 -12.593560
1.197404 -1.654027 -12.710938
1.073918 -2.462601 -11.845984
1.116533 -2.305288 -11.998981
1.033571 -3.361793 -11.386370
1.100285 -3.267310 -11.256277
1.106551 -3.090737 -11.143329
1.139884 -2.880751 -11.113312
1.003015 -2.965729 -11.312630
1.201930 -2.955999 -11.340647
1.248995 -3.585880 -11.537382
1.059385 -2.259594 -12.109115
1.108624 -2.037776 -12.300441
1.046981 -2.830431 -11.461419
1.224523 -2.668639 -11.608840
1.268246 -2.065413 -12.166094
1.133617 -2.007498 -12.242139
1.035779 -2.571659 -11.766928
1.112339 -2.283930 -11.670764
1.086596 -1.856192 -12.298318
1.170782 -1.938276 -12.458669
1.281612 -1.697729 -12.446873
1.107818 -2.431930 -11.823964
1.070996 -2.313572 -11.972397
1.074154 -3.407415 -11.364018
1.076502 -3.212893 -11.300658
1.094422 -2.975760 -11.073562
0.959365 -3.126113 -11.224312
1.022248 -2.889018 -11.331217
1.149425 -2.851349 -11.372728
0.976795 -3.571657 -11.596441
1.033460 -2.350211 -11.923680
1.112135 -2.027201 -11.957811
1.073103 -2.672533 -11.515726
1.007456 -2.586614 -11.520108
1.115210 -1.974857 -12.224966
1.177932 -1.753689 -12.341295
1.131122 -2.540636 -11.595916
1.044059 -2.564146 -11.616043
1.113494 -1.906359 -12.281822
1.121514 -1.702900 -12.309146
1.151364 -1.682183 -12.526073
1.152485 -1.626139 -12.520068
1.092829 -2.409011 -11.787067
1.015002 -2.269400 -11.878396
0.979853 -3.317481 -11.401798
1.042368 -3.231404 -11.272635
0.911671 -3.154336 -11.081313
1.136132 -3.011776 -11.148167
0.952302 -2.848915 -11.231430
0.963296 -2.833102 -11.234643
0.954308 -3.574970 -11.599036
1.004820 -2.103838 -11.935430
1.166934 -2.065165 -12.084150
0.953978 -2.708283 -11.515130
1.013155 -2.563086 -11.354181
1.142211 -2.030457 -12.158564
0.999065 -1.876261 -12.250312
1.086660 -2.591806 -11.691354
1.132763 -2.473879 -11.572657
1.153501 -1.815042 -12.192993
1.237941 -1.758470 -12.450571
1.048071 -1.927751 -12.568555
1.039061 -1.646422 -12.450096
0.856579 -2.442421 -11.729697
0.983552 -2.314558 -11.765107
0.871999 -3.355589 -11.319976
0.925275 -3.303329 -11.225667
0.905407 -3.154400 -11.190054
0.954305 -2.922982 -11.047407
1.088911 -2.956166 -11.100845
0.991400 -2.762604 -11.266655
1.043314 -3.589816 -11.360476
1.037460 -2.175537 -11.908137
0.929986 -2.150319 -11.972612
0.978963 -2.546564 -11.309814
1.042260 -2.685288 -11.392838
1.115579 -2.060818 -12.073470
1.130242 -1.992125 -12.210085
0.965406 -2.583576 -11.583823
1.006580 -2.394901 -11.621742
0.954225 -1.871535 -12.273515
0.946938 -1.765395 -12.361631
1.061664 -1.806553 -12.440086
1.189828 -1.675782 -12.433684
0.909919 -2.333775 -11.641757
0.908254 -2.180770 -11.763992
0.920402 -3.250988 -11.387605
0.939590 -3.146662 -11.390278
0.873016 -3.118188 -11.283707
0.927987 -2.880977 -11.018440
1.004318 -2.794264 -11.160024
0.947135 -2.790939 -11.246794
0.925663 -3.645677 -11.682355
1.014161 -2.251003 -11.982101
0.965241 -2.107582 -12.068611
0.990459 -2.595399 -11.292887
0.946776 -2.604698 -11.603072
1.086450 -2.164834 -11.958566
0.983388 -1.912377 -12.170774
0.963243 -2.463653 -11.508041
0.990496 -2.483419 -11.711204
0.960559 -1.560233 -12.433548
1.058749 -1.721749 -12.272243
0.978571 -1.682443 -12.089681
0.945077 -1.638467 -12.222528
0.917937 -1.763236 -12.348322
0.873903 -2.297472 -11.719169
1.006046 -2.283082 -11.676013
0.841674 -3.474651 -11.439557
0.787455 -3.288898 -11.277796
0.935514 -2.932476 -11.104043
0.824130 -2.886228 -11.048161
0.941731 -2.956103 -11.010956
0.971024 -2.788742 -11.118453
0.862186 -3.592559 -11.615466
0.970242 -2.133869 -11.789353
0.886395 -2.146989 -11.949661
0.973460 -2.481289 -11.392784
0.965612 -2.740923 -11.319077
0.854133 -1.943891 -12.057686
1.029886 -1.972452 -12.056257
0.949789 -2.478887 -11.472901
0.933598 -2.450075 -11.521083
0.919135 -1.741588 -12.424604
0.856952 -1.903122 -12.182084
0.983996 -1.855394 -12.222043
0.917575 -1.647129 -12.143592
0.989779 -1.649049 -12.243216
0.835056 -2.351961 -11.783983
0.854251 -2.370793 -11.720428
0.908226 -3.359107 -11.409229
0.818413 -3.252792 -11.332034
0.860569 -3.142375 -11.219205
0.862352 -3.064304 -11.132547
0.860692 -2.839243 -11.057556
0.857952 -2.659910 -11.143232
1.011911 -3.588933 -11.674200
0.999896 -2.071232 -11.736620
0.899046 -1.914496 -11.896166
0.969620 -2.595898 -11.141275
0.779736 -2.512694 -11.358377
0.796915 -2.040735 -12.023295
0.881101 -1.966541 -12.104811
0.804964 -2.534375 -11.441582
0.819520 -2.394226 -11.529919
0.793643 -1.635188 -12.244172
1.076015 -1.549771 -12.380975
0.961967 -1.844148 -12.044815
0.808814 -1.733424 -12.062147
0.997584 -1.708175 -12.209148
0.859376 -1.597340 -12.219840
0.765104 -2.266615 -11.460793
0.722082 -2.367366 -11.668368
0.902284 -3.307964 -11.372572
0.702927 -3.160964 -11.354554
0.710830 -3.049324 -11.138943
0.799243 -2.992295 -11.077346
0.846398 -2.760004 -10.935271
0.848969 -2.728272 -11.102273
0.849848 -3.477291 -11.557171
0.952850 -2.330799 -11.849666
0.812891 -2.013728 -11.890540
0.815322 -2.668483 -11.075310
0.825416 -2.599591 -11.203858
0.902851 -2.048624 -11.912746
0.839752 -1.787052 -11.961106
0.823813 -2.391890 -11.354530
0.853593 -2.367289 -11.379382
0.708972 -1.554465 -12.204135
0.915051 -1.509596 -12.340580
0.905154 -1.685994 -11.991641
0.784939 -1.774484 -12.173618
0.885334 -1.669723 -12.035609
0.917160 -1.539885 -12.247803
0.801915 -2.323101 -11.565532
0.877959 -2.243689 -11.678273
0.808212 -3.394150 -11.408686
0.765708 -3.179332 -11.369488
0.781338 -3.119726 -11.195901
0.801243 -3.039776 -11.133185
0.838684 -2.821733 -10.876873
0.808712 -2.764592 -10.939965
0.952447 -3.637056 -11.419266
0.827404 -1.884897 -11.695653
0.863634 -2.089431 -11.865661
0.783249 -2.709811 -11.240841
0.726382 -2.655764 -11.253188
0.817212 -1.883308 -11.940192
0.983174 -1.836957 -11.870785
0.802973 -2.546372 -11.307600
0.966865 -2.469779 -11.322004
0.842020 -1.548295 -12.071693
0.718577 -1.569501 -12.314594
0.886643 -1.726888 -12.000944
0.786923 -1.602709 -11.964279
0.834607 -1.681350 -12.117912
0.747774 -1.660988 -12.016622
0.821537 -2.268101 -11.461704
0.706315 -2.063881 -11.395235
0.734979 -3.411011 -11.445480
0.676372 -3.383831 -11.329091
0.742476 -3.155115 -11.148518
0.670222 -3.019206 -11.025622
0.780459 -2.844807 -10.911448
0.811775 -2.830486 -11.062240
0.800744 -3.638176 -11.757356
0.785121 -3.653712 -11.535461
0.782249 -2.200420 -11.567090
0.745410 -1.881263 -11.704515
0.775818 -2.538297 -11.012167
0.923940 -2.591032 -11.127320
0.673710 -2.021647 -11.815571
0.806977 -1.818245 -11.707814
0.718611 -2.409283 -11.324856
0.871473 -2.364061 -11.458812
0.883942 -1.404500 -12.194599
0.794416 -1.492323 -12.360129
0.796411 -1.464649 -12.320483
0.655757 -1.799309 -11.870916
0.724064 -1.663948 -11.973066
0.971534 -1.600788 -12.003398
0.767515 -1.608547 -12.163407
0.691264 -2.249244 -11.341348
0.889452 -2.151157 -11.438966
0.849105 -3.285899 -11.440455
0.729795 -3.349699 -11.357092
0.730426 -3.020460 -11.198751
0.747055 -3.068073 -11.024900
0.745258 -2.820099 -10.811481
0.747010 -2.641368 -10.811431
0.763361 -3.781747 -11.700187
0.685950 -3.505309 -11.597758
0.763931 -2.076824 -11.621209
0.753204 -1.897378 -11.649567
0.740713 -2.568201 -11.132390
0.848531 -2.550256 -11.108682
0.724113 -1.867004 -11.707817
0.637723 -1.913699 -11.941623
0.734860 -2.435805 -11.119308
0.717185 -2.339992 -11.390680
0.837282 -1.506116 -12.200567
0.725375 -1.562504 -12.042279
0.779723 -1.264275 -12.231872
0.675260 -1.864854 -11.932106
0.613213 -1.775845 -11.974383
0.715582 -1.653924 -11.909471
0.669121 -1.565515 -12.144503
0.634238 -2.306518 -11.355135
0.614349 -2.169875 -11.514707
0.675168 -3.366699 -11.437104
0.633771 -3.271459 -11.166119
0.652673 -3.080473 -11.148943
0.789470 -2.861338 -11.058003
0.683530 -2.800823 -11.126850
0.641638 -2.711291 -10.902485
0.731614 -3.642110 -11.567353
0.718525 -3.753226 -11.560003
0.647343 -1.984080 -11.502303
0.833592 -1.905875 -11.560681
0.730161 -2.592851 -11.094142
0.824126 -2.388849 -10.947919
0.624767 -2.018421 -11.694276
0.783422 -1.847126 -11.833192
0.681220 -2.397385 -11.137058
0.547245 -2.326064 -11.350155
0.759604 -1.459350 -11.938191
0.710833 -1.465358 -12.098710
0.639971 -1.407244 -12.276352
0.612120 -1.794762 -11.723794
0.563974 -1.682443 -11.955431
0.789437 -1.630388 -11.877442
0.715170 -1.658710 -12.026386
0.695048 -2.265932 -11.164847
0.738488 -2.133472 -11.357968
0.684581 -3.335022 -11.382299
0.607554 -3.243257 -11.358681
0.635338 -3.065615 -11.260513
0.654105 -3.080211 -11.068029
0.603410 -2.815906 -10.810509
0.581434 -2.634826 -10.729235
0.842229 -3.792563 -11.737897
0.672461 -3.611763 -11.491369
0.796018 -2.084413 -11.419781
0.671928 -2.126923 -11.510764
0.676012 -2.618487 -11.056564
0.732319 -2.551460 -11.109804
0.656339 -1.924749 -11.596554
0.668875 -1.725661 -11.635422
0.674964 -2.373151 -11.168131
0.620064 -2.312491 -11.217576
0.561038 -1.415734 -11.965596
0.686293 -1.497292 -12.022196
0.506047 -1.311921 -12.084372
0.579992 -1.401344 -12.239125
0.816938 -1.803662 -11.685955
0.713350 -1.789922 -11.837439
0.604446 -1.619203 -11.724636
0.570945 -1.600467 -11.934197
0.547271 -2.337969 -11.241312
0.677444 -2.246992 -11.357483
0.619787 -3.245568 -11.353791
0.603954 -3.325001 -11.212225
0.579190 -3.149013 -11.112301
0.703275 -2.922693 -11.049700
0.652185 -2.831443 -10.939393
0.614253 -2.703143 -10.995056
0.584957 -3.768360 -11.785786
0.773424 -3.539802 -11.543516
0.702245 -2.061045 -11.482049
0.635527 -2.062619 -11.484790
0.683745 -2.694890 -10.924858
0.694406 -2.549753 -11.065134
0.660531 -1.894051 -11.517029
0.666402 -1.741617 -11.615375
0.463277 -2.386965 -11.088308
0.503146 -2.432346 -11.191421
0.581112 -1.417182 -11.976210
0.700767 -1.421729 -12.053392
0.639355 -1.358316 -12.107297
0.670461 -1.216741 -12.172853
0.557490 -1.815151 -11.709279
0.621576 -1.634384 -11.747716
0.624286 -1.194710 -12.149967
0.608782 -1.616170 -11.836767
0.608075 -1.594546 -11.817206
0.656770 -2.239532 -11.229611
0.599961 -2.149727 -11.246164
0.513997 -3.431627 -11.557380
0.580315 -3.327734 -11.330699
0.600637 -3.027055 -11.165949
0.437223 -3.033647 -11.084708
0.538317 -2.974016 -10.902050
0.555650 -2.607620 -10.647919
0.629355 -3.750923 -11.856523
0.534750 -3.487597 -11.662470
0.662229 -1.977070 -11.374143
0.448337 -2.009759 -11.600537
0.610180 -2.670345 -10.898723
0.596438 -2.472760 -10.894158
0.514281 -1.933605 -11.444839
0.570732 -1.902535 -11.472534
0.645947 -2.474490 -11.032288
0.728016 -2.356501 -11.151226
0.521908 -1.482124 -11.925020
0.634963 -1.396730 -11.958839
0.500054 -1.250926 -12.037409
0.612441 -1.283704 -11.958939
0.430783 -1.829248 -11.616668
0.722496 -1.695864 -11.593017
0.598414 -1.290986 -12.107801
0.653002 -1.463032 -11.778627
0.390171 -1.530344 -11.854542
0.554728 -2.190207 -11.188241
0.577676 -2.058407 -11.259249
0.604438 -3.320552 -11.448334
0.479864 -3.212225 -11.335138
0.403801 -3.123499 -11.267599
0.598291 -3.101604 -11.052086
0.417069 -2.932648 -11.076600
0.544173 -2.659850 -10.799523
0.556103 -3.713416 -11.884390
0.597508 -3.688047 -11.635388
0.548751 -2.006080 -11.373642
0.482211 -1.911063 -11.509498
0.547438 -2.515513 -10.886149
0.491825 -2.573282 -10.836129
0.449898 -1.891645 -11.587000
0.593217 -1.795357 -11.629374
0.590993 -2.499208 -11.020585
0.458165 -2.374189 -11.083684
0.535229 -1.557960 -11.761113
0.473729 -1.352416 -11.764479
0.583690 -1.348876 -11.905920
0.522933 -1.364713 -12.037576
0.553796 -1.755043 -11.693184
0.537463 -1.611231 -11.677378
0.539610 -1.276565 -11.993444
0.434566 -1.617382 -11.734183
0.480684 -1.492842 -11.772239
0.619535 -2.062062 -11.004326
0.395089 -2.162413 -11.236310
0.601578 -3.384609 -11.494169
0.583943 -3.404776 -11.353841
0.727838 -3.150466 -11.188123
0.481449 -2.990511 -11.124702
0.459951 -2.730639 -10.953049
0.539522 -2.721042 -10.753459
0.545435 -3.626547 -11.803008
0.543127 -3.560662 -11.662075
0.560473 -2.044939 -11.267575
0.572272 -1.800024 -11.350343
0.536850 -2.409693 -10.808101
0.469518 -2.428226 -10.841450
0.498558 -1.838667 -11.420631
0.421434 -1.854933 -11.520873
0.581249 -2.341377 -10.964673
0.406017 -2.332699 -10.967574
0.534997 -1.430732 -11.809825
0.505243 -1.430208 -11.790381
0.599154 -1.296516 -11.895682
0.552816 -1.262331 -11.949527
0.624949 -1.694268 -11.670583
0.445256 -1.609774 -11.609633
0.560326 -1.152905 -11.966176
0.506615 -1.176499 -12.171747
0.592449 -1.501567 -11.606380
0.505391 -1.666231 -11.707228
0.449435 -2.302089 -10.991759
0.470463 -2.144926 -11.137347
0.489379 -3.335936 -11.484218
0.542242 -3.272327 -11.324150
0.651785 -3.158693 -11.232003
0.423796 -2.912151 -11.055623
0.403722 -2.735041 -10.855437
0.608368 -2.712069 -10.872463
0.547356 -3.682472 -11.793727
0.493928 -3.680246 -11.692929
0.486742 -1.980015 -11.249273
0.400648 -1.900731 -11.277912
0.529408 -2.549747 -10.784176
0.505057 -2.359043 -10.781240
0.544705 -1.886948 -11.505770
0.498060 -1.730362 -11.298924
0.445104 -2.428510 -10.866119
0.548744 -2.346533 -10.892449
0.484116 -1.510842 -11.736752
0.500258 -1.522589 -11.710123
0.436334 -1.375251 -11.811926
0.533809 -1.286519 -12.045955
0.310488 -1.763361 -11.350732
0.560120 -1.556560 -11.636802
0.397356 -1.219771 -12.032404
0.342929 -1.097165 -11.919226
0.331328 -1.583673 -11.619551
0.494495 -1.530107 -11.697643
0.351603 -2.216580 -11.009257
0.586397 -2.083529 -11.083043
0.387392 -3.376778 -11.441032
0.422459 -3.174452 -11.407502
0.584433 -3.046394 -11.283826
0.491811 -2.976438 -11.261293
0.528370 -3.953067 -11.961130
0.368675 -2.946631 -10.801614
0.515246 -2.586909 -10.707973
0.541829 -3.729604 -11.801396
0.523596 -3.554518 -11.490925
0.391751 -2.070336 -11.230011
0.404573 -2.002793 -11.358871
0.434835 -2.481978 -10.735160
0.315277 -2.457872 -10.707729
0.439579 -1.849422 -11.322687
0.544344 -1.745028 -11.461486
0.478353 -2.351749 -10.865344
0.334066 -2.451910 -10.993186
0.502032 -1.562107 -11.746037
0.274175 -1.414363 -11.811722
0.559966 -1.325941 -11.750218
0.422091 -1.353267 -11.845201
0.549244 -1.688121 -11.576366
0.605589 -1.592502 -11.387513
0.506035 -1.155696 -11.949319
0.586627 -1.080454 -12.070999
0.514287 -1.520009 -11.612877
0.421899 -1.588872 -11.641416
0.453300 -2.208858 -10.899019
0.410929 -2.083108 -11.181138
0.368322 -3.445906 -11.507972
0.442170 -3.085857 -11.268868
0.501165 -3.097474 -11.312864
0.487599 -3.027831 -11.012161
0.341680 -3.701280 -11.977280
0.413612 -2.817759 -10.953943
0.457281 -2.707995 -10.783297
0.486571 -3.889565 -11.814092
0.356152 -3.490419 -11.536697
0.435783 -1.942354 -11.016367
0.329259 -1.836578 -11.184725
0.443030 -2.473951 -10.540377
0.370221 -2.458794 -10.805290
0.387815 -1.975488 -11.408979
0.411796 -1.846322 -11.295795
0.364982 -2.386808 -10.799159
0.492710 -2.270380 -10.785146
0.418563 -1.405291 -11.473476
0.446471 -1.430159 -11.653225
0.383976 -1.368746 -11.731245
0.411593 -1.296515 -11.708095
0.482461 -1.734998 -11.271221
0.457275 -1.686120 -11.394577
0.543353 -1.189491 -11.798136
0.398087 -1.039504 -11.939451
0.379585 -1.532873 -11.604964
0.227322 -1.501551 -11.424560
0.521715 -1.105661 -11.950186
0.366115 -2.092510 -10.990750
0.405751 -2.175835 -11.045324
0.481595 -3.400496 -11.465513
0.366363 -3.278177 -11.305057
0.446970 -3.128485 -11.261268
0.356099 -2.960547 -11.119387
0.310541 -3.899355 -12.043122
0.270370 -2.980949 -10.907913
0.347221 -2.737933 -10.772766
0.264375 -3.755846 -11.818363
0.443565 -3.518564 -11.614354
0.466641 -1.971894 -11.097987
0.405020 -1.988219 -11.209307
0.357282 -2.554019 -10.664556
0.400952 -2.463500 -10.604865
0.319053 -1.985219 -11.107053
0.372469 -1.667499 -11.396721
0.289810 -2.348444 -10.799045
0.534473 -2.336963 -10.785054
0.388095 -1.345031 -11.652690
0.308975 -1.476114 -11.706272
0.342577 -1.325512 -11.635041
