# .PCD v0.7 - Point Cloud Data file format
VERSION 0.7
FIELDS x y z rgb label
SIZE 4 4 4 4 4
TYPE F F F F U
COUNT 1 1 1 1 1
WIDTH 1519
HEIGHT 1
VIEWPOINT 0 0 0 1 0 0 0
POINTS 1519
DATA ascii
-0.196676 -1.643578 -11.523746
-0.323270 -1.244388 -12.061355
-0.240116 -1.176063 -12.164743
-0.209735 -1.667683 -11.547705
-0.267945 -1.579034 -11.727431
-0.238990 -2.247985 -10.906734
-0.154285 -2.133198 -11.091579
-0.231470 -3.470188 -11.561817
-0.241958 -3.246649 -11.437583
-0.152764 -3.095063 -11.268087
-0.200471 -2.934442 -11.090388
-0.216162 -4.128015 -12.229798
-0.277688 -3.947987 -12.105735
-0.256367 -2.842333 -11.017922
-0.234536 -2.594946 -10.832702
-0.246579 -3.814050 -11.867227
-0.327645 -3.627817 -11.731158
-0.209986 -1.984139 -11.140367
-0.278751 -1.921594 -11.217551
-0.178770 -2.553677 -10.605236
-0.240294 -2.499913 -10.601130
-0.278324 -1.858532 -11.314485
-0.239544 -1.787354 -11.467915
-0.221213 -2.344400 -10.738387
-0.212214 -2.275373 -10.809405
-0.318688 -1.506927 -11.829887
-0.290267 -1.429444 -11.879939
-0.319086 -1.328534 -11.938766
-0.312618 -1.272629 -12.152178
-0.312685 -1.688986 -11.514135
-0.307013 -1.675591 -11.625539
-0.270621 -1.221769 -12.086163
-0.336008 -1.612579 -11.628414
-0.230640 -1.562696 -11.719089
-0.202006 -2.199771 -10.949280
-0.315892 -2.119829 -11.063564
-0.287161 -3.426736 -11.540896
-0.288208 -3.336066 -11.392168
-0.325334 -3.148410 -11.228961
-0.257630 -2.958331 -11.137525
-0.348741 -3.955263 -12.057895
-0.200198 -2.819722 -10.939166
-0.215234 -2.645642 -10.814667
-0.315605 -3.797285 -11.893735
-0.318599 -3.592357 -11.768109
-0.208480 -2.006988 -11.106023
-0.247710 -1.934601 -11.296777
-0.310939 -2.566703 -10.760902
-0.248670 -2.476612 -10.610550
-0.246660 -1.888947 -11.328821
-0.281271 -1.781378 -11.427756
-0.188261 -2.425222 -10.754787
-0.298516 -2.353611 -10.798389
-0.336894 -1.533841 -11.898388
-0.346958 -1.454636 -11.899338
-0.301941 -1.333833 -11.956902
-0.297413 -1.265767 -12.108184
-0.300264 -1.723772 -11.506761
-0.348687 -1.609160 -11.689873
-0.347321 -1.256274 -12.226642
-0.299084 -1.546574 -11.657583
-0.324168 -1.582239 -11.786804
-0.260362 -2.233896 -10.986266
-0.286786 -2.078527 -11.106079
-0.295223 -3.386723 -11.572157
-0.336273 -3.280396 -11.376099
-0.350415 -3.152216 -11.345607
-0.327374 -2.979418 -11.217488
-0.334226 -3.893130 -12.084246
-0.362349 -2.838893 -10.995515
-0.318250 -2.787608 -10.835712
-0.307344 -3.742330 -11.866078
-0.389281 -3.598221 -11.737342
-0.184929 -1.998650 -11.114690
-0.342945 -1.957729 -11.337310
-0.331250 -2.511280 -10.739198
-0.364280 -2.468031 -10.646382
-0.310758 -1.852016 -11.385313
-0.313712 -1.800852 -11.460621
-0.377593 -2.356136 -10.846750
-0.290572 -2.293197 -10.820100
-0.388240 -1.385794 -11.972450
-0.404011 -1.499429 -11.982206
-0.377056 -1.338855 -12.096281
-0.315704 -1.277073 -12.194432
-0.333401 -1.702617 -11.555484
-0.351751 -1.693990 -11.738195
-0.398493 -1.213755 -12.223802
-0.264071 -1.654254 -11.738559
-0.343675 -1.566939 -11.811235
-0.292347 -2.247582 -10.976600
-0.334296 -2.134802 -11.137277
-0.405420 -3.378339 -11.583926
-0.361597 -3.348897 -11.501873
-0.337457 -3.110001 -11.277109
-0.392385 -3.017902 -11.163140
-0.403895 -4.019974 -12.130980
-0.357464 -2.824701 -11.054747
-0.293958 -2.621034 -10.934801
-0.406334 -3.872579 -11.923454
-0.359778 -3.557366 -11.747330
-0.359619 -2.040293 -11.220473
-0.356003 -1.956757 -11.290894
-0.311705 -2.468004 -10.738734
-0.347034 -2.463598 -10.726725
-0.311988 -1.951458 -11.433760
-0.300717 -1.821751 -11.544379
-0.340075 -2.389939 -10.813290
-0.344459 -2.290080 -10.928718
-0.441444 -1.459011 -11.963051
-0.432851 -1.423239 -12.034119
-0.475974 -1.340872 -12.059927
-0.405581 -1.331816 -12.229988
-0.303927 -1.697493 -11.663831
-0.381147 -1.677189 -11.704493
-0.399623 -1.226923 -12.249753
-0.400105 -1.684741 -11.712837
-0.339180 -1.562088 -11.898014
-0.437377 -2.187518 -11.068606
-0.390001 -2.216001 -11.176759
-0.340845 -3.401064 -11.549053
-0.398897 -3.297819 -11.454688
-0.331372 -3.069652 -11.282161
-0.327544 -3.010105 -11.143820
-0.384751 -3.920644 -12.143525
-0.313503 -2.835427 -11.065889
-0.353797 -2.615433 -10.889205
-0.442164 -3.816345 -11.896908
-0.416394 -3.546863 -11.763644
-0.408160 -2.071430 -11.323232
-0.420878 -1.972042 -11.484776
-0.371764 -2.480742 -10.743164
-0.371183 -2.480263 -10.727384
-0.300174 -1.900067 -11.462182
-0.404956 -1.755287 -11.607067
-0.350961 -2.445022 -10.852364
-0.363366 -2.342545 -10.954307
-0.395151 -1.515503 -12.071909
-0.464074 -1.478519 -12.056328
-0.445041 -1.338155 -12.201648
-0.434228 -1.305956 -12.317681
-0.377185 -1.728465 -11.652583
-0.429182 -1.692814 -11.668111
-0.434843 -1.664308 -11.787513
-0.417059 -1.624675 -11.902549
-0.313951 -2.250606 -11.060575
-0.368098 -2.199733 -11.227092
-0.468141 -3.340606 -11.671397
-0.340605 -3.290752 -11.454238
-0.417529 -3.130659 -11.281698
-0.477923 -2.968720 -11.176877
-0.462626 -3.978323 -12.111087
-0.405180 -2.855025 -11.116507
-0.386507 -2.708992 -10.912278
-0.395900 -3.838905 -11.980474
-0.384594 -3.583097 -11.751893
-0.414512 -2.085131 -11.271678
-0.381473 -1.929109 -11.435273
-0.336179 -2.474611 -10.772724
-0.452674 -2.497550 -10.817762
-0.420670 -1.904760 -11.570589
-0.472318 -1.815459 -11.572194
-0.387664 -2.322872 -10.886798
-0.444696 -2.349331 -10.950320
-0.545133 -1.546660 -12.076516
-0.518152 -1.432619 -11.980146
-0.470747 -1.354112 -12.251841
-0.588319 -1.400210 -12.361363
-0.516951 -1.754479 -11.707290
-0.458362 -1.753660 -11.825353
-0.455187 -1.600721 -11.933078
-0.511497 -1.617694 -11.888584
-0.465134 -2.230755 -11.166045
-0.464488 -2.116089 -11.278675
-0.485001 -3.375449 -11.580853
-0.453048 -3.312445 -11.389721
-0.451151 -3.078730 -11.274684
-0.498479 -3.077849 -11.133778
-0.407922 -2.823609 -11.047929
-0.472414 -2.669093 -10.877965
-0.470011 -3.796822 -11.891435
-0.490090 -3.592231 -11.794656
-0.511970 -1.958288 -11.385130
-0.479714 -1.990053 -11.430057
-0.426949 -2.613894 -10.682693
-0.412742 -2.486691 -10.872536
-0.444008 -1.882390 -11.544079
-0.431412 -1.850840 -11.712489
-0.424230 -2.392635 -10.938565
-0.438113 -2.330600 -10.974188
-0.489092 -1.517794 -12.074095
-0.534060 -1.471674 -12.121698
-0.484507 -1.321437 -12.306617
-0.516789 -1.329483 -12.342953
-0.499961 -1.771456 -11.782222
-0.486770 -1.665560 -11.916807
-0.563221 -1.609554 -11.854732
-0.430163 -1.609948 -11.979507
-0.485267 -2.205600 -11.168492
-0.453283 -2.201837 -11.315208
-0.461958 -3.376274 -11.573982
-0.492782 -3.237119 -11.442514
-0.536009 -3.115174 -11.303291
-0.439022 -2.993678 -11.204683
-0.519331 -2.897565 -10.996259
-0.488655 -2.707834 -10.888645
-0.524995 -3.798238 -11.957783
-0.528135 -3.619485 -11.780025
-0.464559 -2.042178 -11.413451
-0.493048 -2.027885 -11.467814
-0.438834 -2.543225 -10.826825
-0.473343 -2.470810 -10.840707
-0.535773 -1.920312 -11.588251
-0.466693 -1.859193 -11.648885
-0.490283 -2.486423 -10.974295
-0.497193 -2.269488 -11.080420
-0.567919 -1.572844 -12.194529
-0.543533 -1.419104 -12.163123
-0.431573 -1.357274 -12.293926
-0.497056 -1.822074 -11.857480
-0.595447 -1.620649 -11.881856
-0.540040 -1.680221 -12.007516
-0.554992 -1.650579 -12.081963
-0.477110 -2.274484 -11.215267
-0.562033 -2.077762 -11.364713
-0.549636 -3.419548 -11.637902
-0.468800 -3.284935 -11.483813
-0.454978 -3.103068 -11.338934
-0.513229 -2.950414 -11.186749
-0.607626 -2.940162 -11.086849
-0.493236 -2.673572 -10.871983
-0.536321 -3.789239 -11.878134
-0.567675 -3.550403 -11.786904
-0.534166 -2.061849 -11.435592
-0.518131 -1.961877 -11.586724
-0.510430 -2.537280 -10.854770
-0.509444 -2.468268 -10.914146
-0.446050 -1.921663 -11.677324
-0.483980 -1.836981 -11.781340
-0.533807 -2.345828 -10.961458
-0.513604 -2.356001 -11.107931
-0.589073 -1.534130 -12.179424
-0.613381 -1.466931 -12.210635
-0.593790 -1.372754 -12.404655
-0.550131 -1.809065 -11.842932
-0.556429 -1.725588 -11.946311
-0.579768 -1.702732 -11.991120
-0.586732 -1.623569 -12.083729
-0.478630 -2.227345 -11.216062
-0.574727 -2.154306 -11.352550
-0.547068 -3.500251 -11.626620
-0.607152 -3.270733 -11.476235
-0.554512 -3.121341 -11.369310
-0.577798 -2.928156 -11.203253
-0.561439 -2.836009 -11.090494
-0.504701 -2.729738 -10.797187
-0.633561 -3.794022 -11.958066
-0.582384 -3.611848 -11.807596
-0.520415 -2.058791 -11.530332
-0.516742 -2.077121 -11.574065
-0.550007 -2.567164 -10.920900
-0.535000 -2.472354 -10.883367
-0.597930 -1.910088 -11.680836
-0.582052 -1.912956 -11.794940
-0.555176 -2.392964 -11.095032
-0.540794 -2.305073 -11.158183
-0.635702 -1.485904 -12.242054
-0.599394 -1.472943 -12.352424
-0.722215 -1.376938 -12.360465
-0.549666 -1.769359 -11.872220
-0.599520 -1.703990 -12.030230
-0.657110 -1.705269 -12.129208
-0.609666 -1.580848 -12.114463
-0.568164 -2.220139 -11.293543
-0.570325 -2.140185 -11.466217
-0.649631 -3.370009 -11.539896
-0.631528 -3.351064 -11.522791
-0.569347 -3.093941 -11.377716
-0.562524 -2.993423 -11.268105
-0.579157 -2.852347 -11.072263
-0.525291 -2.714100 -10.949782
-0.558373 -3.793015 -11.997911
-0.624267 -3.568088 -11.716729
-0.520690 -2.049310 -11.474664
-0.569921 -2.018277 -11.616000
-0.462427 -2.624207 -10.860151
-0.576913 -2.563102 -11.019632
-0.695793 -1.944173 -11.738760
-0.628856 -1.889723 -11.803875
-0.575123 -2.421897 -11.027313
-0.592300 -2.412204 -11.187255
-0.644870 -1.547466 -12.353402
-0.689859 -1.491043 -12.413279
-0.723490 -1.415827 -12.489105
-0.679641 -1.820376 -11.956280
-0.675093 -1.729060 -12.061375
-0.640803 -1.630654 -12.178281
-0.699141 -1.736359 -12.195941
-0.572012 -2.249980 -11.321068
-0.586149 -2.152314 -11.389008
-0.653618 -3.385943 -11.577352
-0.591654 -3.279766 -11.478549
-0.592393 -3.147570 -11.348364
-0.558038 -3.043035 -11.200635
-0.594830 -2.847215 -11.108372
-0.585747 -2.652351 -10.847291
-0.596336 -3.779617 -11.933896
-0.628017 -3.535380 -11.728579
-0.625478 -2.101007 -11.536590
-0.600077 -1.931411 -11.643466
-0.597430 -2.620572 -10.969981
-0.614519 -2.553854 -10.997667
-0.688628 -1.889798 -11.696355
-0.679087 -1.843458 -11.845640
-0.602206 -2.448575 -11.080351
-0.623356 -2.463773 -11.206808
-0.714678 -1.530606 -12.327064
-0.770293 -1.479418 -12.355068
-0.692969 -1.842558 -11.990183
-0.662179 -1.668548 -12.104484
-0.752053 -1.697839 -12.125913
-0.695928 -1.693830 -12.288063
-0.578437 -2.219993 -11.421435
-0.599169 -2.207676 -11.463139
-0.606123 -3.440387 -11.609538
-0.624199 -3.295076 -11.464832
-0.615931 -3.119473 -11.395914
-0.622397 -3.005362 -11.182035
-0.598972 -2.860775 -11.099542
-0.609529 -2.716917 -10.896301
-0.712886 -3.530153 -11.756821
-0.664682 -2.143332 -11.653432
-0.717447 -2.108857 -11.728098
-0.633523 -2.631813 -11.020125
-0.618061 -2.520008 -11.004302
-0.696777 -1.993471 -11.806506
-0.688782 -1.927998 -11.903165
-0.609451 -2.458238 -11.150943
-0.658702 -2.385254 -11.241489
-0.705220 -1.542476 -12.440644
-0.833774 -1.526624 -12.544010
-0.774205 -1.779913 -12.043580
-0.730137 -1.670455 -12.083362
-0.738852 -1.749606 -12.134315
-0.689675 -1.620852 -12.247264
-0.674912 -2.253186 -11.450224
-0.712336 -2.139191 -11.555549
-0.685653 -3.409220 -11.657273
-0.674221 -3.354500 -11.430840
-0.704303 -3.160360 -11.448203
-0.645976 -3.089633 -11.190476
-0.684322 -2.854717 -11.101287
-0.673983 -2.657957 -10.881091
-0.736849 -3.587595 -11.746608
-0.737521 -2.153944 -11.578002
-0.657558 -2.034168 -11.798981
-0.685285 -2.586530 -11.140917
-0.573790 -2.535726 -11.128265
-0.735352 -2.022422 -11.909810
-0.773621 -1.863869 -11.969636
-0.637847 -2.463977 -11.212945
-0.645602 -2.405492 -11.272387
-0.844360 -1.504407 -12.403853
-0.690608 -1.575604 -12.517391
-0.870421 -1.780686 -12.140098
-0.796401 -1.682630 -12.141939
-0.737301 -1.662929 -12.224320
-0.845901 -1.661935 -12.369840
-0.687545 -2.340482 -11.483290
-0.723819 -2.267131 -11.622810
-0.716768 -3.442595 -11.602314
-0.744679 -3.341975 -11.491944
-0.765853 -3.176896 -11.417735
-0.714578 -3.075197 -11.244432
-0.718516 -2.903840 -11.105083
-0.681973 -2.692166 -11.027464
-0.736725 -3.647739 -11.799217
-0.673486 -2.171634 -11.630670
-0.763011 -2.080721 -11.828209
-0.756315 -2.560856 -11.078852
-0.757271 -2.573827 -11.132951
-0.811751 -1.948031 -11.809313
-0.795844 -2.017177 -12.036423
-0.724090 -2.493093 -11.181977
-0.637645 -2.448143 -11.375068
-0.849775 -1.581034 -12.462343
-0.864115 -1.532795 -12.527095
-0.792350 -1.808407 -12.181898
-0.836258 -1.769517 -12.224861
-0.789139 -1.713401 -12.274305
-0.867584 -1.686421 -12.310590
-0.779892 -2.296068 -11.481850
-0.791051 -2.180396 -11.622636
-0.818647 -3.467761 -11.595335
-0.711243 -3.293929 -11.476130
-0.758767 -3.112957 -11.358998
-0.737057 -2.992472 -11.216136
-0.752058 -2.847381 -11.044151
-0.785942 -2.686073 -10.954564
-0.862520 -3.602656 -11.829568
-0.731021 -2.103643 -11.709936
-0.792258 -2.058939 -11.922919
-0.790599 -2.658126 -11.069383
-0.740832 -2.614104 -11.213524
-0.784664 -1.912829 -11.985166
-0.763591 -1.956785 -12.035407
-0.757760 -2.508208 -11.256896
-0.747743 -2.501265 -11.398093
-0.927793 -1.600387 -12.525477
-0.826360 -1.836636 -12.183897
-0.918172 -1.729388 -12.301834
-0.886302 -1.732850 -12.343502
-0.882950 -1.637781 -12.368046
-0.831279 -2.351591 -11.560940
-0.837061 -2.233499 -11.705898
-0.863498 -3.382771 -11.616518
-0.820666 -3.309438 -11.542789
-0.829882 -3.139657 -11.407656
-0.740814 -2.988698 -11.265132
-0.817190 -2.971471 -11.107652
-0.726320 -2.680219 -11.095313
-0.781485 -3.658966 -11.784426
-0.785106 -2.171407 -11.717321
-0.809816 -2.051324 -11.857109
-0.797064 -2.662278 -11.123747
-0.724269 -2.563629 -11.145172
-0.839265 -1.982304 -12.015602
-0.886345 -1.941172 -12.151990
-0.834148 -2.523298 -11.274717
-0.875538 -2.416565 -11.407283
-0.959647 -1.566542 -12.630097
-0.966762 -1.834609 -12.194296
-0.846081 -1.838153 -12.362551
-0.871653 -1.680619 -12.451402
-0.917056 -1.708768 -12.485014
-0.788430 -2.306976 -11.607760
-0.835750 -2.325225 -11.654282
-0.877200 -3.419045 -11.650479
-0.809532 -3.356761 -11.544772
-0.789485 -3.154078 -11.391113
-0.766413 -3.049188 -11.274025
-0.818175 -2.860309 -11.121153
-0.761989 -2.763191 -10.981007
-0.821153 -3.558277 -11.827233
-0.778613 -2.218943 -11.796153
-0.814880 -2.047650 -11.882529
-0.785321 -2.667416 -11.158912
-0.808069 -2.585159 -11.214532
-0.846214 -1.993343 -12.058137
-0.929494 -1.936014 -12.187136
-0.869933 -2.493436 -11.374014
-0.845590 -2.409662 -11.480724
-0.979608 -1.587767 -12.578496
-0.913907 -1.834975 -12.289715
-0.937640 -1.809128 -12.344114
-0.948416 -1.669994 -12.426877
-0.972971 -1.661629 -12.524113
-0.879813 -2.308122 -11.609741
-0.882633 -2.231798 -11.724472
-0.848950 -3.342173 -11.723613
-0.786554 -3.355172 -11.546011
-0.815189 -3.218213 -11.358209
-0.849578 -3.066113 -11.218818
-0.891677 -3.003066 -11.133101
-0.782467 -2.706125 -11.127829
-0.901482 -2.175523 -11.792657
-0.914901 -2.084258 -11.944500
-0.844364 -2.670707 -11.220866
-0.882338 -2.576777 -11.337047
-0.860791 -1.960073 -12.058038
-0.863847 -1.868035 -12.163581
-0.774999 -2.517709 -11.342932
-0.895594 -2.395123 -11.440955
-0.943459 -1.840216 -12.336547
-1.030684 -1.712626 -12.379970
-0.981885 -1.726376 -12.454762
-0.968631 -1.660528 -12.593589
-0.938814 -2.402496 -11.659620
-0.938992 -2.222548 -11.778618
-0.993989 -3.504456 -11.747003
-0.910130 -3.281075 -11.514595
-0.836654 -3.151374 -11.374831
-0.899494 -3.045055 -11.243352
-0.941593 -2.882562 -11.115793
-0.909992 -2.755279 -11.132056
-0.989522 -2.075776 -11.866258
-0.946903 -2.120578 -12.001966
-0.920126 -2.619462 -11.243241
-0.897453 -2.672712 -11.262819
-1.053645 -2.013456 -12.096357
-0.991235 -1.928292 -12.237850
-0.933305 -2.504463 -11.429111
-0.909878 -2.445106 -11.532168
-0.957853 -1.884076 -12.323820
-1.019988 -1.743114 -12.407743
-1.026299 -1.769869 -12.521554
-1.089495 -1.768189 -12.694237
-0.925391 -2.411793 -11.672281
-0.929141 -2.216735 -11.830971
-0.985397 -3.426855 -11.639541
-0.913458 -3.355730 -11.600473
-0.977075 -3.148007 -11.358940
-0.895686 -3.043773 -11.260632
-0.852825 -2.904974 -11.036023
-0.871241 -2.741614 -11.117512
-0.977110 -2.241960 -12.049846
-0.973503 -2.106783 -12.021497
-0.915441 -2.700088 -11.281118
-0.882151 -2.574083 -11.347720
-1.022001 -2.064521 -12.142051
-0.978513 -1.920745 -12.207641
-0.992383 -2.542478 -11.406781
-0.969325 -2.425006 -11.579555
-1.074676 -1.927177 -12.432530
-1.061888 -1.792189 -12.502812
-1.075654 -1.736756 -12.524164
-1.054081 -1.676010 -12.658584
-1.007088 -2.306611 -11.743548
-1.036347 -2.313061 -11.890465
-0.936554 -3.413078 -11.677905
-0.935546 -3.380506 -11.489975
-1.030305 -3.192747 -11.385452
-0.937120 -3.043803 -11.219077
-0.887105 -2.811267 -11.159900
-0.981492 -2.782661 -11.245275
-1.077945 -2.159747 -11.966133
-1.046970 -2.145664 -12.047309
-0.930974 -2.656498 -11.324334
-0.929857 -2.642021 -11.421350
-1.036507 -1.892514 -12.164054
-1.006126 -1.922906 -12.253044
-0.946630 -2.494979 -11.470105
-0.989526 -2.490603 -11.609278
-1.035383 -1.914060 -12.363675
-1.118854 -1.845216 -12.548538
-1.158146 -1.725266 -12.616912
-1.096697 -1.755683 -12.662127
-1.005283 -2.321972 -11.793173
-1.064689 -2.254962 -11.972150
-1.054589 -3.445831 -11.677406
-1.065493 -3.391063 -11.553502
-1.037415 -3.131056 -11.326685
-1.044807 -2.984048 -11.339312
-0.931801 -2.893076 -11.059883
-0.984544 -2.738549 -11.216615
-1.043664 -2.214274 -12.030911
-1.076218 -2.146143 -12.169632
-1.025625 -2.680006 -11.403939
-0.941660 -2.595031 -11.399770
-1.022106 -2.006893 -12.195587
-1.056208 -1.998237 -12.430170
-1.035536 -2.551602 -11.560042
-1.028652 -2.427133 -11.687042
-1.162897 -1.929274 -12.425776
-1.063398 -1.810784 -12.612421
-1.136662 -1.822730 -12.706979
-1.120622 -1.693268 -12.800541
-1.029758 -2.406530 -11.866315
-1.094388 -2.251839 -11.950060
-1.103034 -3.465789 -11.632991
-1.009850 -3.341086 -11.499411
-0.971801 -3.209294 -11.335932
-1.009367 -3.014389 -11.292053
-1.021397 -2.874320 -11.176953
-1.051440 -2.746496 -11.305171
-1.110978 -2.195546 -12.059787
-1.157970 -2.187240 -12.147995
-1.003729 -2.651028 -11.425102
-0.997656 -2.591114 -11.477887
-1.091191 -2.010302 -12.336063
-1.082190 -1.943913 -12.507955
-1.059385 -2.518993 -11.639081
-1.090951 -2.503853 -11.733536
-1.167918 -1.941234 -12.572114
-1.098246 -1.677840 -12.614926
-1.192403 -1.752895 -12.867218
-1.122852 -2.394054 -11.888810
-1.054120 -2.371244 -12.008867
-1.047659 -3.372274 -11.516531
-1.061382 -3.181944 -11.421399
-1.027768 -3.020558 -11.287681
-1.078926 -2.943831 -11.209523
-1.094545 -2.784202 -11.322867
-1.085347 -2.187790 -12.139633
-1.182292 -2.141885 -12.269913
-1.054566 -2.733711 -11.410916
-1.040623 -2.695367 -11.562218
-1.218644 -2.021363 -12.410980
-1.148170 -1.984143 -12.509623
-1.060376 -2.634641 -11.665817
-1.114318 -2.511508 -11.731768
-1.292224 -1.867476 -12.643656
-1.260233 -1.851021 -12.735016
-1.285473 -1.764318 -12.732043
-1.171959 -2.330202 -11.884920
-1.150445 -2.324169 -12.111625
-1.190741 -3.391112 -11.595201
-1.087351 -3.126741 -11.393103
-1.140022 -3.025513 -11.203402
-1.094373 -2.939428 -11.322109
-1.137836 -2.798178 -11.395691
-1.179518 -2.190689 -12.172064
-1.196664 -2.143868 -12.230991
-1.172352 -2.731514 -11.593637
-1.085258 -2.647299 -11.553140
-1.163976 -2.056805 -12.347166
-1.182824 -1.897164 -12.529473
-1.168905 -2.503462 -11.671465
-1.177675 -2.460740 -11.808870
-1.217250 -1.866345 -12.639015
-1.229714 -1.858307 -12.713941
-1.304923 -1.782794 -12.858724
-1.262033 -2.421779 -11.937446
-1.177947 -2.338250 -12.067867
-1.064735 -3.345272 -11.566618
-1.147354 -3.251987 -11.467574
-1.133183 -3.002232 -11.288214
-1.255114 -2.948085 -11.313476
-1.041713 -2.775175 -11.363162
-1.235056 -2.285956 -12.216474
-1.202341 -2.122025 -12.343892
-1.173040 -2.697454 -11.536968
-1.187041 -2.674405 -11.564689
-1.256527 -1.998536 -12.440979
-1.196375 -1.942111 -12.594460
-1.175669 -2.578936 -11.769190
-1.140517 -2.545754 -11.840263
-1.290231 -2.365519 -12.028878
-1.195926 -2.409336 -12.156948
-1.154012 -3.169372 -11.441106
-1.135183 -3.072984 -11.246596
-1.219968 -2.859237 -11.371348
-1.229685 -2.881032 -11.470869
-1.233051 -2.275410 -12.275489
-1.277719 -2.128466 -12.374311
-1.233095 -2.706728 -11.585801
-1.206506 -2.671303 -11.619131
-1.198323 -2.024785 -12.457278
-1.284383 -2.032781 -12.650094
-1.253947 -2.539592 -11.755396
-1.232726 -2.495777 -11.889498
-1.269793 -2.462514 -11.991030
-1.338308 -2.348069 -12.220877
-1.224968 -3.145093 -11.405036
-1.162641 -3.088279 -11.306665
-1.242529 -2.947409 -11.396913
-1.218913 -2.846343 -11.444864
-1.339260 -2.265435 -12.311082
-1.349070 -2.159493 -12.377190
-1.229271 -2.685309 -11.627008
-1.165284 -2.684502 -11.764885
-1.205767 -2.618614 -11.774884
-1.254475 -2.542353 -11.903774
-1.362829 -2.517985 -12.108093
-1.356619 -2.343193 -12.251003
-1.299651 -3.237282 -11.461205
-1.187888 -3.056340 -11.285455
-1.236906 -2.883423 -11.423909
-1.283538 -2.900706 -11.516147
-1.258933 -2.777729 -11.741910
-1.248556 -2.704734 -11.698979
-1.268497 -2.668357 -11.850099
-1.326200 -2.563472 -11.976086
-1.276936 -3.193910 -11.462111
-1.239200 -3.095424 -11.315927
-1.278568 -2.979395 -11.449842
-1.375162 -2.906735 -11.604926
-1.282125 -2.724643 -11.710004
-1.365266 -2.700179 -11.816040
-1.339504 -2.637857 -11.934907
-1.371924 -2.574618 -12.002436
-1.409652 -3.177201 -11.472463
-1.320559 -3.099568 -11.347367
-1.301638 -2.951043 -11.449190
-1.331018 -2.892684 -11.612478
-1.403048 -2.791317 -11.802330
-1.390820 -2.724995 -11.836270
-1.298851 -3.267465 -11.480227
-1.354726 -3.057429 -11.468078
-1.362761 -3.001571 -11.491976
-1.378409 -2.927933 -11.717709
-1.434253 -3.025917 -11.380844
-1.381645 -3.038894 -11.579382
1.382931 -3.404863 -11.337882
1.356523 -3.308654 -11.502972
1.445269 -3.246268 -11.575005
1.520083 -2.457692 -12.305925
1.465628 -2.400339 -12.370244
1.362671 -3.361906 -11.317227
1.290694 -3.348024 -11.387701
1.434398 -3.225313 -11.545560
1.401672 -3.155190 -11.594221
1.377004 -3.086471 -11.702044
1.457101 -2.917226 -11.846084
1.418915 -2.362613 -12.554752
1.486447 -2.275404 -12.641632
1.420798 -2.745349 -11.985341
1.468687 -2.765842 -12.020034
1.480329 -2.075583 -12.676831
1.543630 -2.008635 -12.845827
1.397429 -2.692775 -12.084365
1.416119 -2.602935 -12.250626
1.419710 -2.514087 -12.319466
1.424409 -2.343771 -12.344942
1.336966 -3.362718 -11.361100
1.391089 -3.336815 -11.416156
1.340635 -3.220970 -11.525166
1.399782 -3.038299 -11.546535
1.348422 -2.998819 -11.630229
1.328179 -2.950311 -11.758913
1.471284 -2.287781 -12.416466
1.411937 -2.243598 -12.625938
1.339070 -2.778417 -11.884023
1.340463 -2.777088 -11.915497
1.387653 -2.117589 -12.662615
1.552419 -2.008926 -12.767053
1.448187 -2.644669 -12.003578
1.385037 -2.554619 -12.120197
1.376303 -2.421409 -12.235647
1.397451 -2.320692 -12.385600
1.370920 -3.394427 -11.379205
1.302986 -3.298579 -11.316319
1.338823 -3.195657 -11.456151
1.266936 -3.105498 -11.503599
1.324500 -3.010948 -11.605173
1.358720 -2.899270 -11.724924
1.447386 -2.336134 -12.429434
1.465794 -2.172607 -12.522228
1.336577 -2.790279 -11.862613
1.326584 -2.781974 -11.883625
1.495516 -2.139256 -12.603768
1.347863 -1.996162 -12.784880
1.348382 -2.580621 -11.983744
1.388296 -2.536374 -12.123871
1.404557 -1.923678 -12.670374
1.418084 -2.456631 -12.098023
1.373146 -2.379684 -12.262932
1.239853 -3.385815 -11.386855
1.295059 -3.240445 -11.303154
1.225753 -3.191648 -11.355159
1.254510 -3.133466 -11.454102
1.200619 -2.930429 -11.477862
1.369745 -2.859316 -11.682468
1.351522 -2.269015 -12.357940
1.413453 -2.155191 -12.541763
1.270934 -2.781070 -11.811100
1.268688 -2.646698 -11.796007
1.416688 -2.077199 -12.522879
1.413386 -1.925820 -12.609934
1.355597 -2.582355 -11.999199
1.260281 -2.568969 -11.972201
1.307030 -1.906969 -12.601919
1.318065 -2.503989 -12.115895
1.284714 -2.318048 -12.208032
1.213576 -3.375463 -11.388908
1.249273 -3.337566 -11.291887
1.205212 -3.195727 -11.261605
1.179102 -3.062547 -11.423000
1.269013 -3.012258 -11.507674
1.242042 -2.836244 -11.646299
1.372471 -2.335858 -12.261503
1.428572 -2.172713 -12.407857
1.243061 -2.740480 -11.722762
1.262528 -2.702639 -11.809280
1.377441 -2.098200 -12.505254
1.415881 -1.998726 -12.606551
1.293725 -2.607060 -11.870578
1.250130 -2.520278 -11.960189
1.307296 -1.881550 -12.613248
1.198043 -2.477826 -11.994913
1.296404 -2.351178 -12.159616
1.200037 -3.420176 -11.434657
1.129553 -3.240938 -11.267444
1.228350 -3.163566 -11.272345
1.151216 -3.068702 -11.340084
1.151165 -3.024384 -11.519845
1.225201 -2.861259 -11.561154
1.270110 -2.258131 -12.201204
1.318888 -2.200546 -12.342671
1.214143 -2.832692 -11.641536
1.261409 -2.725842 -11.795423
1.286941 -2.040496 -12.506148
1.349416 -1.967832 -12.524835
1.299195 -2.665860 -11.881674
1.251961 -2.539146 -11.901648
1.239123 -1.872559 -12.563396
1.376770 -1.786333 -12.642724
1.191437 -2.406334 -11.927878
1.126823 -2.316406 -12.059633
1.222469 -3.346629 -11.372853
1.064305 -3.307611 -11.293782
1.172779 -3.096859 -11.248585
1.121727 -3.069560 -11.330912
1.196979 -2.940804 -11.503602
1.212024 -2.840952 -11.530072
1.227591 -2.274805 -12.182222
1.282007 -2.128817 -12.326578
1.163672 -2.799117 -11.668855
1.159932 -2.754088 -11.633146
1.188375 -2.078106 -12.349351
1.317653 -1.937383 -12.488180
1.230185 -2.620998 -11.843420
1.229491 -2.559683 -11.920447
1.253041 -1.868500 -12.528028
1.210249 -1.862007 -12.596351
1.179187 -2.452010 -11.944963
1.186290 -2.285090 -12.086846
1.077320 -3.412799 -11.332583
1.096847 -3.209307 -11.278088
1.106065 -3.083648 -11.149890
1.059171 -2.978033 -11.258128
1.095866 -2.915601 -11.311845
1.050545 -2.782708 -11.479556
1.198698 -3.512626 -11.603674
1.227316 -2.256248 -12.117312
1.125560 -2.092668 -12.170495
1.165631 -2.697235 -11.576193
1.192840 -2.612873 -11.745555
1.235338 -2.053157 -12.258514
1.224783 -2.000503 -12.413518
1.148491 -2.552851 -11.774388
1.142733 -2.483623 -11.825758
1.188225 -1.849717 -12.431696
1.161865 -1.799806 -12.521002
1.195006 -1.787065 -12.581753
1.097366 -2.406046 -11.838827
1.172019 -2.323642 -11.956068
1.082532 -3.368942 -11.422154
1.098587 -3.268924 -11.365783
1.111040 -3.083535 -11.060883
1.043044 -3.069641 -11.171202
1.071315 -2.853159 -11.340291
1.033508 -2.863365 -11.409756
1.099336 -3.548043 -11.558217
1.087196 -2.206557 -12.094166
1.122051 -2.159122 -12.143238
1.118188 -2.715318 -11.454463
1.067695 -2.757954 -11.555728
1.184123 -2.080332 -12.277667
1.163798 -1.972423 -12.346870
1.103233 -2.636283 -11.723737
1.136108 -2.528604 -11.760413
1.155021 -1.835149 -12.381262
1.179540 -1.739672 -12.467623
1.187359 -1.739934 -12.504424
1.041912 -2.348447 -11.825440
1.152760 -2.200933 -11.943751
1.078944 -3.265952 -11.468153
0.902394 -3.271688 -11.186474
1.000163 -3.086293 -11.174122
1.104115 -3.067791 -11.213912
0.998285 -3.010585 -11.305337
1.034499 -2.782201 -11.340823
1.082765 -3.573327 -11.588623
1.074738 -2.203735 -12.006509
1.126625 -2.160141 -12.185809
1.111937 -2.669333 -11.444028
1.060165 -2.684729 -11.586705
1.138143 -1.960618 -12.180222
1.145720 -1.879015 -12.254891
1.003711 -2.504111 -11.609352
1.032668 -2.523300 -11.674033
1.154199 -1.774367 -12.342409
1.105188 -1.809690 -12.382203
1.096239 -1.800730 -12.498708
1.047569 -1.629215 -12.443002
1.020434 -2.352387 -11.814996
0.987627 -2.284016 -11.866326
0.999792 -3.388432 -11.415421
1.004994 -3.239060 -11.292960
1.028259 -3.091881 -11.105607
1.002118 -2.971928 -11.097882
1.041333 -2.930808 -11.318066
1.070738 -2.773120 -11.344984
1.029197 -3.599060 -11.631985
1.088940 -2.177381 -11.943359
1.089907 -2.130671 -12.083034
1.000326 -2.697314 -11.486284
0.999937 -2.713150 -11.536168
1.072435 -2.013039 -12.168405
1.046759 -1.963348 -12.310107
0.997571 -2.592588 -11.595849
1.049108 -2.465531 -11.611251
1.058259 -1.819398 -12.322488
1.135840 -1.828307 -12.355066
1.079587 -1.665579 -12.419762
1.023519 -1.583572 -12.448522
0.987737 -2.269446 -11.768052
1.036108 -2.197538 -11.840862
0.914411 -3.438232 -11.410951
0.973278 -3.207517 -11.331372
0.897816 -3.096716 -11.171016
0.954709 -2.962775 -11.066940
1.009602 -2.927798 -11.205543
1.045588 -2.805143 -11.311723
1.053893 -3.539040 -11.615872
0.972898 -2.226608 -11.876505
0.998594 -2.129744 -12.046172
1.038006 -2.703150 -11.403185
0.935287 -2.604909 -11.428082
1.103041 -2.061533 -12.087000
1.154842 -1.851803 -12.158227
0.976111 -2.546039 -11.527797
0.964985 -2.450587 -11.619681
1.012940 -1.873690 -12.199759
1.082174 -1.832142 -12.248093
1.027101 -1.653306 -12.382201
1.031288 -1.660494 -12.374255
0.988863 -2.416407 -11.717586
0.902387 -2.239923 -11.774737
0.944841 -3.333043 -11.404846
0.968783 -3.297204 -11.297558
0.881373 -3.103476 -11.175808
0.929096 -2.990856 -11.054701
0.964321 -2.906817 -11.087689
0.926655 -2.782951 -11.208131
1.002120 -3.569991 -11.564021
1.064873 -2.125075 -11.866862
1.007084 -2.108493 -11.998658
0.980176 -2.621586 -11.344847
1.008927 -2.656113 -11.388099
0.984406 -2.072929 -12.006313
1.074108 -1.888221 -12.196567
0.918861 -2.411557 -11.455031
0.934927 -2.477688 -11.594288
0.887352 -1.485976 -12.399452
0.981235 -1.813406 -12.124038
0.985396 -1.710139 -12.177960
1.000139 -1.731711 -12.297837
0.940271 -1.610756 -12.365674
0.948054 -2.330207 -11.604831
0.907812 -2.226584 -11.712223
0.926969 -3.349415 -11.355277
0.899309 -3.262105 -11.303350
1.008089 -3.113501 -11.152168
0.809607 -3.003578 -10.954230
0.833934 -2.829682 -11.103269
0.889464 -2.732632 -11.197666
0.951098 -3.544712 -11.623382
0.906136 -2.181324 -11.765297
0.878108 -2.042371 -11.873727
0.895734 -2.658626 -11.280066
0.935362 -2.624681 -11.364349
0.882399 -1.961410 -11.950677
0.960030 -1.781689 -12.050651
0.837955 -2.459398 -11.470430
0.964526 -2.409543 -11.581107
0.951964 -1.537107 -12.390089
0.950629 -1.820459 -12.121631
0.944724 -1.719757 -12.163850
0.907436 -1.700097 -12.220488
0.961584 -1.640561 -12.279868
0.924375 -2.304486 -11.590464
0.888544 -2.344846 -11.692673
0.826986 -3.375793 -11.437630
0.906569 -3.306721 -11.369198
0.832228 -3.064793 -11.166711
0.846889 -2.957459 -11.038821
0.848992 -2.885895 -11.043989
0.755845 -2.783980 -11.155028
0.905772 -3.564385 -11.663856
0.954146 -2.078614 -11.778735
0.887613 -2.061674 -11.857048
0.919286 -2.596667 -11.282959
0.894005 -2.625929 -11.255220
0.925840 -1.973535 -11.911879
0.989289 -1.893666 -12.009007
0.857081 -2.489267 -11.343785
0.788891 -2.436646 -11.521931
0.949056 -1.594544 -12.317426
0.962687 -1.441467 -12.383237
0.823877 -1.765065 -12.088125
0.955883 -1.711842 -12.122492
0.845739 -1.703783 -12.187871
0.897991 -1.535392 -12.189927
0.858604 -2.286142 -11.493946
0.852005 -2.256202 -11.619925
0.818560 -3.389517 -11.420749
0.811755 -3.264841 -11.245847
0.783493 -3.104746 -11.149774
0.760506 -2.980906 -11.079033
0.805310 -2.908415 -10.996131
0.693465 -2.713598 -11.135280
0.788407 -3.499324 -11.561144
0.860667 -2.182373 -11.769485
0.841203 -2.069053 -11.839787
0.788655 -2.659054 -11.191127
0.791882 -2.545402 -11.259936
0.901988 -1.877039 -11.836318
0.907737 -1.887276 -12.041780
0.881421 -2.407399 -11.331525
0.817405 -2.427072 -11.434713
0.880713 -1.562739 -12.220739
0.900421 -1.472540 -12.242074
0.818491 -1.773624 -12.031062
0.857543 -1.739983 -12.065680
0.823691 -1.678375 -12.098970
0.838622 -1.657774 -12.120856
0.808874 -2.290676 -11.453496
0.782672 -2.237370 -11.576772
0.806943 -3.402173 -11.404311
0.813724 -3.232182 -11.299361
0.802465 -3.106193 -11.187277
0.747751 -2.924954 -11.064299
0.769168 -2.757151 -10.956372
0.849254 -2.765888 -11.049565
0.866771 -3.532379 -11.621436
0.853368 -2.148662 -11.682276
0.835800 -1.994827 -11.816671
0.829765 -2.648368 -11.202134
0.771462 -2.574212 -11.167604
0.857518 -1.994678 -11.842903
0.844988 -1.835959 -11.921825
0.829535 -2.549682 -11.306561
0.792405 -2.393331 -11.313330
0.836277 -1.542497 -12.205382
0.902827 -1.529637 -12.241085
0.851363 -1.799127 -11.819777
0.801939 -1.774873 -12.051052
0.897547 -1.667545 -12.028066
0.834116 -1.575392 -12.117803
0.778264 -2.209817 -11.472257
0.777070 -2.207271 -11.488748
0.806999 -3.342753 -11.446924
0.780356 -3.287716 -11.343462
0.756377 -3.061990 -11.181659
0.755656 -2.945949 -11.075257
0.775270 -2.813665 -10.935016
0.764746 -2.747709 -11.012159
0.778530 -3.675959 -11.757774
0.775297 -3.518543 -11.586997
0.848925 -2.096313 -11.645550
0.813664 -2.009215 -11.706370
0.769814 -2.535105 -11.172644
0.668845 -2.613126 -11.134079
0.830897 -1.997406 -11.770009
0.852596 -1.883772 -11.931948
0.791045 -2.421851 -11.298513
0.783765 -2.425081 -11.326015
0.744041 -1.492661 -12.029516
0.773936 -1.409449 -12.159241
0.876759 -1.401661 -12.251641
0.673573 -1.904130 -11.867271
0.804687 -1.708836 -11.946976
0.755910 -1.618838 -12.005671
0.761145 -1.631371 -12.089400
0.693298 -2.351966 -11.337949
0.790340 -2.232387 -11.512389
0.718057 -3.347281 -11.454159
0.753574 -3.195810 -11.350971
0.664357 -3.058327 -11.162294
0.707492 -2.893200 -11.115068
0.674924 -2.800865 -10.966814
0.757015 -2.726669 -10.947724
0.745583 -3.721964 -11.745769
0.702561 -3.620891 -11.582894
0.730110 -2.067769 -11.563182
0.835207 -1.995122 -11.689892
0.727405 -2.656063 -11.053774
0.652708 -2.503866 -11.124106
0.750183 -1.947724 -11.661678
0.783665 -1.847580 -11.800175
0.688969 -2.501133 -11.109436
0.723238 -2.424775 -11.306653
0.742529 -1.565790 -12.055997
0.748887 -1.351104 -12.143383
0.731948 -1.428003 -12.192088
0.786218 -1.780041 -11.857701
0.702583 -1.736255 -11.846980
0.706529 -1.641682 -11.988461
0.722290 -1.566667 -12.027372
0.700986 -2.201915 -11.332604
0.703069 -2.177048 -11.476107
0.749380 -3.394917 -11.491509
0.629094 -3.219021 -11.376059
0.647031 -3.118139 -11.134958
0.651108 -2.950657 -11.125217
0.714379 -2.850933 -10.892070
0.686267 -2.661130 -10.969317
0.664857 -3.784621 -11.811686
0.718529 -3.577022 -11.530441
0.772824 -2.148163 -11.483161
0.715255 -2.000493 -11.565881
0.695948 -2.634060 -11.046055
0.752498 -2.609504 -11.097416
0.747454 -1.931497 -11.758712
0.771680 -1.830432 -11.821212
0.721805 -2.428063 -11.166748
0.670847 -2.331580 -11.245634
0.734197 -1.528152 -12.061779
0.715386 -1.428998 -12.080618
0.678690 -1.353716 -12.156393
0.652307 -1.672042 -11.760625
0.650647 -1.677028 -11.897320
0.663684 -1.680624 -11.940680
0.742087 -1.593076 -12.028342
0.776470 -2.322291 -11.223784
0.706189 -2.120071 -11.398853
0.705366 -3.435658 -11.425716
0.682328 -3.316001 -11.268004
0.607998 -3.159011 -11.141902
0.621327 -3.032369 -11.044535
0.565408 -2.801036 -10.975904
0.654566 -2.695610 -10.919929
0.673226 -3.717438 -11.803650
0.670549 -3.572209 -11.605643
0.642687 -2.147717 -11.508187
0.635156 -1.994587 -11.564725
0.712820 -2.564346 -10.955043
0.726390 -2.602554 -10.970452
0.661997 -1.902992 -11.700361
0.725187 -1.860357 -11.687400
0.592895 -2.487094 -11.173673
0.616924 -2.306122 -11.196905
0.611778 -1.530203 -11.994344
0.703643 -1.498324 -12.035741
0.671456 -1.403873 -12.100769
0.664899 -1.252243 -12.261964
0.588429 -1.800140 -11.669735
0.622760 -1.639516 -11.786810
0.753514 -1.590948 -11.918322
0.679412 -1.648138 -11.895523
0.634850 -2.230024 -11.253591
0.592834 -2.178655 -11.287108
0.637156 -3.425726 -11.395846
0.602241 -3.282448 -11.334035
0.659150 -3.141209 -11.217370
0.585994 -2.916263 -11.058319
0.549099 -2.800775 -10.906304
0.576023 -2.683593 -10.838934
0.639775 -3.798391 -11.798836
0.569882 -3.587184 -11.623134
0.590659 -2.061692 -11.438209
0.538588 -1.996528 -11.445242
0.533972 -2.585966 -10.918563
0.578716 -2.476739 -10.929056
0.532934 -1.941385 -11.618200
0.596472 -1.844311 -11.652467
0.638204 -2.407956 -11.111431
0.634929 -2.335773 -11.130739
0.624271 -1.446827 -11.943462
0.641421 -1.474546 -11.977778
0.700518 -1.346269 -12.139139
0.628231 -1.286963 -12.177297
0.623208 -1.781777 -11.712072
0.595482 -1.761310 -11.784776
0.694800 -1.296131 -12.181653
0.585494 -1.593231 -11.824882
0.551888 -1.522091 -11.857193
0.603436 -2.297236 -11.158582
0.638717 -2.198350 -11.295010
0.551425 -3.398302 -11.445326
0.628141 -3.285972 -11.325316
0.560250 -3.121396 -11.139697
0.592035 -2.996054 -11.082470
0.579917 -2.730599 -10.884535
0.532174 -2.698382 -10.845267
0.650590 -3.791653 -11.700869
0.618131 -3.541912 -11.608105
0.639026 -1.964746 -11.391062
0.661309 -2.002370 -11.446909
0.533626 -2.595072 -10.874977
0.599272 -2.541557 -10.950176
0.610373 -1.903674 -11.473036
0.612511 -1.775866 -11.521108
0.554794 -2.435075 -11.029922
0.557088 -2.304367 -11.109857
0.647355 -1.501645 -11.839023
0.629794 -1.408192 -11.970019
0.617275 -1.420134 -12.066856
0.652531 -1.229319 -12.007090
0.573690 -1.770854 -11.581799
0.576869 -1.656978 -11.668474
0.692851 -1.231743 -12.079793
0.422775 -1.670284 -11.784598
0.582503 -1.581098 -11.797910
0.543220 -2.217562 -11.169788
0.549931 -2.217267 -11.243758
0.572679 -3.352590 -11.489607
0.531277 -3.269535 -11.367207
0.593107 -3.119336 -11.197301
0.554781 -3.014181 -11.004305
0.509228 -2.810437 -10.924241
0.496782 -2.619173 -10.748636
0.551617 -3.704018 -11.808673
0.600263 -3.539134 -11.676997
0.622425 -2.036013 -11.314039
0.561998 -1.961135 -11.432199
0.500250 -2.554801 -10.845499
0.485173 -2.543979 -10.943604
0.583275 -1.858088 -11.444066
0.568038 -1.793119 -11.499103
0.552004 -2.420336 -10.947258
0.569233 -2.363477 -11.086210
0.566953 -1.488686 -11.902527
0.574285 -1.383427 -11.911288
0.517039 -1.336274 -11.886907
0.638055 -1.274362 -12.039045
0.468214 -1.695849 -11.557805
0.474822 -1.669734 -11.637942
0.614453 -1.197273 -12.049791
0.554026 -1.623835 -11.705296
0.500061 -1.547495 -11.766304
0.521621 -2.304161 -11.104335
0.456551 -2.077124 -11.114615
0.534750 -3.424469 -11.498989
0.533035 -3.283425 -11.362556
0.552764 -3.173506 -11.183494
0.486038 -3.013464 -11.075949
0.537095 -2.753515 -10.914267
0.512473 -2.696557 -10.753255
0.580844 -3.768464 -11.805652
0.604204 -3.595727 -11.663433
0.476355 -2.041499 -11.332947
0.502170 -1.954990 -11.331221
0.472119 -2.527395 -10.810053
0.419118 -2.491173 -10.811395
0.534738 -1.818711 -11.394050
0.606743 -1.828138 -11.499775
0.530045 -2.400125 -10.922043
0.533013 -2.326611 -10.966472
0.494717 -1.470164 -11.790415
0.498846 -1.384082 -11.736760
0.499220 -1.401039 -11.987533
0.469097 -1.287025 -12.011435
0.476473 -1.711937 -11.555797
0.571762 -1.617309 -11.557697
0.468605 -1.185367 -12.038901
0.539292 -1.158322 -12.073674
0.492612 -1.593797 -11.682917
0.555803 -1.559839 -11.682226
0.478382 -2.314082 -11.075222
0.548342 -2.171321 -11.190839
0.500005 -3.363213 -11.456293
0.500654 -3.239207 -11.374702
0.455217 -3.099744 -11.235312
0.426631 -3.032776 -11.136306
0.462835 -2.827755 -10.836439
0.527639 -2.606482 -10.779954
0.448665 -3.751539 -11.743211
0.517889 -3.557167 -11.601369
0.464248 -2.058537 -11.222381
0.511395 -1.958028 -11.307647
0.484188 -2.533121 -10.822307
0.488182 -2.445979 -10.867247
0.529924 -1.819083 -11.377143
0.515092 -1.778785 -11.489135
0.508527 -2.429949 -10.943053
0.466943 -2.356822 -11.021973
0.483531 -1.437909 -11.775203
0.428433 -1.366128 -11.768159
0.425055 -1.348151 -11.829868
0.535254 -1.271830 -11.881044
0.462519 -1.762061 -11.523372
0.439942 -1.667947 -11.578986
0.449531 -1.254147 -11.925946
0.489482 -1.175718 -12.018646
0.452652 -1.654924 -11.582434
0.465987 -1.595633 -11.726509
0.463412 -2.166901 -11.049790
0.367852 -2.192427 -11.092353
0.456866 -3.386734 -11.500735
0.443795 -3.327392 -11.397133
0.453665 -3.118908 -11.149788
0.433054 -2.983929 -11.076507
0.458434 -3.928404 -11.943878
0.425615 -2.856867 -11.024023
0.358178 -2.772472 -10.764446
0.450091 -3.804122 -11.844692
0.441125 -3.537883 -11.627441
0.427041 -2.075274 -11.160176
0.483735 -1.958519 -11.196855
0.398127 -2.541214 -10.685553
0.472476 -2.562651 -10.834527
0.423890 -1.914522 -11.367032
0.488275 -1.812286 -11.404617
0.453113 -2.332872 -10.819413
0.414322 -2.260820 -10.898996
0.451650 -1.405729 -11.642609
0.348927 -1.377093 -11.622629
0.349584 -1.362423 -11.787785
0.430610 -1.336471 -11.893594
0.494198 -1.723019 -11.368318
0.395418 -1.617636 -11.490116
0.446151 -1.147755 -11.893426
0.548224 -1.181441 -12.022404
0.450681 -1.585511 -11.518080
0.387985 -1.522251 -11.637973
0.428046 -2.220317 -11.004843
0.391422 -2.076161 -11.081927
0.427811 -3.382756 -11.455390
0.428391 -3.260449 -11.317537
0.442901 -3.129476 -11.263169
0.485438 -2.969919 -11.103568
0.412116 -3.922799 -12.014975
0.412021 -2.785082 -10.995340
0.364310 -2.704568 -10.814520
0.426952 -3.743273 -11.814984
0.398297 -3.575150 -11.655825
0.449606 -2.041029 -11.111230
0.406062 -1.974138 -11.238148
0.453929 -2.536768 -10.697443
0.419201 -2.451934 -10.761539
0.409086 -1.902108 -11.298960
0.408308 -1.761459 -11.410536
0.424621 -2.352046 -10.777923
0.402615 -2.222560 -10.885368
0.412910 -1.418283 -11.619076
0.397096 -1.407778 -11.678303
0.370128 -1.405400 -11.768620
0.438491 -1.288508 -11.809075
0.353223 -1.703538 -11.360111
0.379395 -1.663516 -11.463547
0.432323 -1.194904 -11.926252
0.388314 -1.151360 -11.919587
0.346972 -1.590466 -11.518859
0.364012 -1.544069 -11.573684
0.374983 -1.093582 -12.034691
0.377717 -2.173930 -10.924881
0.395044 -2.107866 -10.990748
0.387659 -3.358141 -11.414062
0.427994 -3.190118 -11.363807
0.405391 -3.082746 -11.263700
0.385367 -3.043248 -11.123118
0.389715 -3.924177 -11.955320
0.392165 -2.828099 -10.981699
0.395026 -2.611075 -10.775552
0.393490 -3.715304 -11.785062
0.445068 -3.518271 -11.601551
0.306170 -2.019790 -11.034920
0.348951 -2.024366 -11.195563
0.400456 -2.490309 -10.590122
0.412826 -2.474849 -10.721936
0.423285 -1.962587 -11.238234
0.408617 -1.784442 -11.240740
0.402802 -2.310149 -10.759582
0.359667 -2.262161 -10.812730
0.352372 -1.455238 -11.598574
0.425979 -1.285087 -11.704790
0.383999 -1.366793 -11.724785
0.362187 -1.242833 -11.728814
0.389274 -1.697051 -11.347245
0.439851 -1.665115 -11.422886
0.427367 -1.239456 -11.845640
0.384964 -1.130206 -11.923315
0.408719 -1.546133 -11.408146
0.344605 -1.531806 -11.492347
0.360289 -1.052748 -11.995942
0.344156 -2.186688 -10.933933
0.362199 -2.013257 -10.974279
0.394927 -3.301361 -11.473275
0.338050 -3.218355 -11.358288
0.310882 -3.072614 -11.220269
0.295571 -3.018842 -11.076035
0.377088 -3.956500 -12.017991
0.398159 -2.828778 -10.938648
0.333517 -2.622386 -10.791785
0.388798 -3.719944 -11.785233
0.414199 -3.562626 -11.564242
0.399440 -2.023261 -11.075731
0.410219 -1.891499 -11.178114
0.384434 -2.461969 -10.630934
0.324011 -2.421795 -10.603186
0.331122 -1.857758 -11.230633
0.348992 -1.738914 -11.244391
0.349714 -2.282845 -10.741053
0.345335 -2.261598 -10.774541
0.262183 -1.518098 -11.569634
0.345881 -1.405935 -11.589974
0.327720 -1.300866 -11.623276
0.299318 -1.301027 -11.709405
0.349942 -1.726534 -11.245137
0.349576 -1.680383 -11.404772
0.333597 -1.186789 -11.747684
0.345894 -1.172957 -11.767837
0.284069 -1.485090 -11.324744
0.316002 -1.519285 -11.458326
0.300821 -1.035842 -11.929140
0.372088 -0.931410 -11.952668
0.299099 -2.296988 -10.860598
0.344117 -2.074437 -10.905105
0.302874 -3.344744 -11.414578
0.344611 -3.186226 -11.346583
0.273821 -3.106199 -11.265941
0.293568 -2.979463 -11.094400
0.341792 -3.934446 -11.983534
0.288009 -2.874739 -10.957945
0.326549 -2.619846 -10.858960
0.341933 -3.831016 -11.836093
0.338486 -3.595884 -11.557518
0.297852 -1.946606 -11.032614
0.324762 -1.904589 -11.082656
0.236842 -2.573840 -10.637393
0.233050 -2.357730 -10.608542
0.339896 -1.840475 -11.071136
0.345657 -1.745997 -11.229632
0.324148 -2.336669 -10.651318
0.259475 -2.327328 -10.734240
0.259496 -1.450259 -11.431058
0.291520 -1.339603 -11.551860
0.316235 -1.315577 -11.589519
0.212951 -1.209988 -11.615683
0.294987 -1.651196 -11.265464
0.283020 -1.593258 -11.322797
0.288774 -1.251838 -11.738560
0.270251 -1.098695 -11.721975
0.220482 -1.644778 -11.391758
0.310596 -1.541471 -11.441003
0.328424 -1.046948 -11.828061
0.295986 -1.001072 -11.890193
0.364153 -2.140296 -10.806506
0.221539 -2.078080 -10.927069
0.313452 -3.355610 -11.513066
0.297737 -3.356536 -11.391344
0.259124 -3.130196 -11.223716
0.267592 -2.926460 -11.035064
0.291950 -3.925582 -12.077238
0.269986 -2.801541 -11.003499
0.265969 -2.638664 -10.733013
0.307783 -3.794722 -11.851709
0.305027 -3.553632 -11.602445
0.271418 -2.016139 -10.876708
0.236494 -1.925424 -11.052043
0.253355 -2.464299 -10.636602
0.322566 -2.349655 -10.557461
0.215471 -1.847458 -11.112883
0.245158 -1.752457 -11.224949
0.230790 -2.365542 -10.663719
0.200270 -2.231097 -10.625214
0.261496 -1.406530 -11.453182
0.250961 -1.380133 -11.428124
0.261567 -1.300913 -11.549216
0.296058 -1.334029 -11.610034
0.296786 -1.677537 -11.209406
0.292207 -1.672334 -11.193960
0.219389 -1.243097 -11.663644
0.314221 -1.137836 -11.696441
0.190762 -1.605573 -11.367711
0.275166 -1.527556 -11.324877
0.197508 -1.067350 -11.832261
0.265931 -0.953349 -11.840316
0.191922 -0.916800 -11.876504
0.317139 -2.188875 -10.826024
0.234275 -2.032868 -10.792586
0.251110 -3.394728 -11.479222
0.255267 -3.210654 -11.407398
0.247269 -3.082728 -11.227117
0.256673 -2.965436 -11.095050
0.193983 -3.929369 -11.985858
0.253533 -2.910094 -10.926131
0.246748 -2.662798 -10.836711
0.240201 -3.703607 -11.845053
0.209315 -3.590643 -11.645599
0.211883 -2.005033 -10.980586
0.217874 -1.936518 -10.982725
0.240817 -2.518638 -10.607864
0.241273 -2.384132 -10.634847
0.211123 -1.850939 -11.111992
0.273535 -1.799405 -11.182851
0.219410 -2.353810 -10.545763
0.233013 -2.234307 -10.594173
0.171191 -1.389140 -11.371724
0.229131 -1.366949 -11.398550
0.238139 -1.343135 -11.524622
0.282926 -1.210874 -11.565881
0.241934 -1.627514 -11.134520
0.218912 -1.567254 -11.226811
0.252954 -1.229436 -11.638904
0.201089 -1.121586 -11.672970
0.272636 -1.543620 -11.319294
0.163921 -1.481447 -11.369051
0.245400 -1.099899 -11.712134
0.228916 -1.038688 -11.873159
0.239263 -0.910048 -11.814530
0.284758 -2.166229 -10.712499
0.178939 -2.053118 -10.796911
0.184283 -3.447942 -11.500132
0.222664 -3.263953 -11.341128
0.201079 -3.058517 -11.270993
0.166122 -3.044866 -11.090133
0.243569 -3.942281 -12.065027
0.244556 -2.822349 -11.002764
0.159641 -2.642792 -10.778631
0.223150 -3.763204 -11.780918
0.246117 -3.579105 -11.690704
0.244977 -2.019679 -10.851814
0.230558 -1.906999 -10.942403
0.183300 -2.510717 -10.629514
0.174090 -2.407034 -10.570934
0.215270 -1.745085 -11.044010
0.234858 -1.795390 -11.063780
0.185527 -2.332598 -10.546641
0.155384 -2.327961 -10.589531
0.143720 -1.446855 -11.364801
0.121602 -1.339931 -11.338961
0.131266 -1.323288 -11.389561
0.120922 -1.188522 -11.546100
0.227279 -1.683576 -11.084790
0.189575 -1.600420 -11.225110
0.211248 -1.120643 -11.575513
0.151094 -1.072259 -11.620217
0.155201 -1.518424 -11.197456
0.144898 -1.547268 -11.309610
0.191683 -1.097481 -11.717066
0.222500 -0.939899 -11.757626
0.210737 -0.873822 -11.796372
0.148143 -2.138073 -10.707783
0.226996 -2.029038 -10.739186
0.146052 -3.350241 -11.525412
0.196277 -3.265585 -11.306546
0.130723 -3.058594 -11.271003
0.161997 -2.994603 -11.141156
0.223881 -4.075627 -12.146115
0.218834 -3.963904 -12.051542
0.134369 -2.842775 -10.936764
0.200420 -2.631652 -10.829357
0.121210 -3.728242 -11.829289
0.217387 -3.555913 -11.665889
0.195855 -2.002147 -10.761981
