# .PCD v0.7 - Point Cloud Data file format
VERSION 0.7
FIELDS x y z rgb label
SIZE 4 4 4 4 4
TYPE F F F F U
COUNT 1 1 1 1 1
WIDTH 1517
HEIGHT 1
VIEWPOINT 0 0 0 1 0 0 0
POINTS 1517
DATA ascii
-0.190473 -3.411828 -11.572263
-0.166355 -3.314946 -11.436501
-0.129728 -3.109325 -11.317373
-0.162042 -2.997743 -11.155691
-0.175352 -4.088470 -12.251856
-0.160088 -4.015468 -12.087038
-0.096771 -2.803793 -10.950044
-0.092030 -2.652048 -10.811499
-0.142947 -3.807838 -11.903895
-0.095675 -3.579181 -11.701986
-0.143041 -1.984690 -11.009077
-0.160993 -1.919110 -11.068341
-0.133849 -2.561620 -10.615320
-0.100283 -2.417381 -10.592870
-0.060808 -1.833423 -11.205844
-0.140207 -1.747780 -11.263255
-0.145315 -2.307175 -10.587928
-0.138551 -2.266419 -10.718969
-0.200223 -1.489692 -11.698475
-0.178781 -1.445783 -11.704500
-0.199814 -1.363588 -11.796344
-0.122594 -1.281818 -11.959285
-0.226630 -1.707202 -11.386901
-0.154493 -1.702172 -11.442542
-0.172536 -1.266132 -11.962322
-0.194811 -1.196866 -12.062558
-0.119040 -1.600367 -11.507008
-0.206803 -1.519073 -11.650137
-0.232017 -2.162649 -10.795114
-0.190235 -2.098499 -10.958431
-0.172731 -3.390324 -11.546328
-0.196629 -3.293097 -11.445097
-0.153880 -3.105474 -11.268965
-0.151529 -2.938043 -11.171038
-0.204412 -4.148931 -12.234287
-0.112617 -3.972369 -12.039107
-0.160665 -2.817897 -11.021008
-0.202413 -2.654388 -10.876547
-0.175241 -3.786537 -11.917638
-0.136535 -3.568225 -11.702122
-0.129121 -1.983585 -11.089600
-0.168542 -1.982598 -11.143817
-0.163907 -2.500443 -10.713502
-0.165126 -2.444926 -10.626201
-0.154049 -1.839439 -11.225871
-0.168066 -1.718849 -11.360286
-0.143795 -2.348126 -10.639709
-0.162321 -2.234541 -10.680132
-0.225944 -1.497948 -11.732811
-0.185244 -1.372707 -11.787600
-0.232465 -1.385212 -11.918049
-0.254289 -1.274292 -11.987337
-0.251420 -1.698143 -11.455690
-0.195589 -1.670454 -11.532952
-0.257131 -1.219929 -12.030409
-0.241551 -1.198286 -12.124165
-0.167478 -1.676942 -11.578045
-0.197425 -1.543692 -11.673117
-0.173665 -2.169654 -10.878887
-0.248079 -2.103285 -10.987522
-0.183035 -3.410784 -11.557049
-0.232016 -3.325859 -11.396079
-0.202807 -3.153803 -11.254049
-0.199476 -3.000433 -11.165864
-0.221704 -4.122143 -12.217695
-0.258333 -3.961375 -12.083870
-0.234178 -2.852749 -11.026306
-0.173747 -2.700012 -10.856277
-0.240222 -3.744072 -11.894890
-0.200005 -3.608448 -11.722746
-0.230956 -2.065489 -10.978064
-0.252380 -1.914984 -11.195755
-0.240786 -2.524018 -10.735382
-0.207610 -2.475882 -10.575506
-0.220166 -1.798959 -11.238897
-0.165419 -1.784710 -11.379033
-0.156068 -2.282046 -10.704108
-0.189670 -2.310249 -10.770348
-0.233283 -1.440375 -11.757795
-0.254042 -1.432243 -11.872615
-0.239894 -1.321569 -11.972632
-0.231764 -1.261465 -11.991470
-0.185429 -1.705337 -11.446019
-0.197572 -1.673317 -11.624833
-0.217562 -1.242926 -12.046570
-0.216071 -1.148464 -12.152591
-0.276920 -1.614565 -11.613488
-0.263348 -1.522411 -11.705337
-0.199669 -2.225647 -10.890834
-0.278139 -2.088211 -11.045589
-0.233553 -3.402028 -11.546673
-0.242118 -3.287768 -11.429203
-0.246094 -3.162327 -11.281680
-0.259170 -2.972066 -11.145751
-0.253539 -4.154032 -12.232817
-0.291722 -3.943224 -12.096092
-0.250768 -2.833548 -11.033459
-0.238909 -2.649041 -10.854575
-0.247924 -3.789874 -11.895433
-0.261359 -3.617280 -11.701632
-0.239169 -2.007906 -11.079495
-0.236148 -1.929960 -11.168433
-0.233811 -2.539507 -10.670262
-0.236311 -2.435102 -10.635579
-0.237597 -1.807634 -11.265704
-0.248613 -1.827089 -11.400876
-0.234098 -2.368692 -10.691581
-0.161028 -2.291620 -10.755462
-0.327500 -1.474446 -11.844704
-0.262810 -1.403254 -11.977235
-0.284740 -1.358766 -12.034655
-0.344122 -1.294634 -12.052654
-0.297512 -1.699547 -11.562474
-0.241788 -1.662579 -11.534969
-0.279029 -1.231347 -12.148115
-0.276179 -1.616786 -11.708824
-0.301829 -1.576842 -11.751889
-0.281042 -2.198934 -10.934562
-0.259245 -2.077115 -11.034977
-0.285897 -3.376139 -11.611660
-0.264481 -3.240985 -11.401337
-0.261978 -3.121767 -11.337731
-0.237319 -2.977966 -11.221008
-0.304433 -3.946195 -12.032453
-0.280644 -2.824228 -11.028472
-0.274398 -2.680680 -10.860716
-0.258151 -3.740387 -11.909945
-0.250096 -3.593975 -11.665420
-0.227409 -2.031565 -11.158905
-0.297754 -1.925473 -11.299263
-0.283870 -2.509414 -10.679286
-0.264430 -2.440616 -10.634355
-0.323370 -1.868309 -11.330609
-0.339293 -1.820046 -11.471496
-0.257042 -2.355129 -10.721117
-0.315045 -2.320895 -10.831420
-0.342028 -1.500385 -11.867085
-0.285410 -1.455695 -11.932834
-0.354010 -1.364699 -12.026174
-0.305316 -1.244431 -12.139277
-0.277009 -1.769905 -11.577825
-0.358317 -1.684284 -11.620575
-0.306594 -1.230271 -12.182788
-0.310819 -1.609886 -11.689163
-0.302560 -1.540679 -11.743863
-0.305894 -2.232947 -10.990546
-0.305513 -2.102540 -11.097536
-0.283115 -3.407727 -11.569783
-0.262088 -3.287338 -11.406469
-0.344629 -3.182207 -11.341978
-0.268969 -3.031485 -11.177708
-0.305695 -3.942304 -12.115954
-0.344122 -2.822102 -11.056990
-0.294076 -2.718360 -10.879771
-0.318334 -3.757153 -11.935897
-0.324560 -3.581166 -11.788130
-0.288606 -2.006123 -11.199082
-0.346864 -1.975047 -11.272407
-0.234423 -2.503207 -10.704600
-0.303729 -2.478320 -10.698227
-0.299347 -1.921784 -11.346239
-0.339327 -1.809824 -11.523823
-0.307902 -2.404522 -10.825333
-0.286837 -2.260511 -10.872796
-0.340478 -1.450758 -11.943002
-0.356517 -1.406067 -12.002652
-0.363370 -1.282419 -12.126916
-0.372900 -1.284642 -12.088826
-0.387943 -1.748423 -11.591843
-0.367461 -1.628942 -11.733282
-0.355052 -1.298696 -12.285934
-0.284220 -1.577843 -11.801822
-0.359020 -1.556784 -11.842308
-0.316418 -2.243910 -11.084888
-0.327734 -2.129397 -11.172862
-0.386642 -3.377596 -11.619818
-0.328429 -3.248799 -11.429130
-0.319959 -3.152451 -11.275822
-0.278192 -2.992376 -11.211243
-0.355151 -3.995360 -12.109440
-0.351367 -2.827494 -11.002856
-0.351954 -2.670399 -10.855622
-0.398437 -3.720534 -11.886925
-0.344072 -3.544995 -11.711309
-0.330099 -2.047553 -11.219063
-0.346535 -1.946284 -11.361454
-0.322232 -2.538543 -10.705462
-0.318939 -2.422324 -10.720367
-0.330578 -1.846439 -11.419701
-0.379484 -1.829219 -11.496354
-0.329247 -2.355896 -10.866736
-0.327141 -2.267620 -10.881159
-0.426384 -1.465508 -12.005278
-0.461806 -1.414564 -12.073153
-0.422242 -1.331273 -12.113393
-0.372199 -1.309707 -12.198179
-0.331674 -1.749039 -11.605825
-0.414868 -1.709290 -11.787496
-0.430426 -1.224680 -12.262131
-0.338657 -1.631373 -11.778464
-0.352683 -1.544915 -11.825146
-0.363552 -2.215611 -11.027769
-0.362557 -2.043974 -11.173713
-0.415806 -3.461807 -11.564421
-0.357641 -3.236065 -11.449220
-0.377947 -3.108086 -11.323547
-0.365430 -2.950591 -11.198976
-0.451723 -3.958503 -12.059188
-0.337027 -2.851925 -11.106018
-0.363464 -2.648721 -10.856815
-0.425890 -3.799217 -11.939528
-0.415517 -3.547180 -11.729197
-0.355856 -2.091589 -11.261558
-0.392828 -1.986818 -11.391111
-0.410380 -2.522941 -10.726284
-0.357607 -2.450259 -10.749663
-0.419894 -1.897545 -11.501629
-0.377355 -1.825385 -11.575296
-0.339741 -2.372875 -10.833141
-0.395661 -2.356416 -10.951026
-0.440766 -1.505990 -12.001892
-0.437686 -1.430488 -12.082867
-0.425864 -1.443023 -12.122565
-0.382658 -1.308462 -12.254174
-0.398441 -1.789882 -11.690456
-0.451836 -1.707124 -11.816880
-0.473068 -1.633085 -11.916398
-0.454127 -1.615717 -11.870732
-0.451331 -2.268248 -11.112301
-0.440169 -2.131030 -11.219023
-0.431534 -3.411955 -11.566876
-0.404634 -3.294018 -11.446590
-0.378771 -3.156717 -11.298937
-0.381849 -2.970558 -11.155870
-0.481384 -4.020389 -12.117068
-0.353976 -2.825435 -11.033756
-0.424724 -2.660902 -10.951074
-0.418759 -3.768287 -11.884558
-0.462568 -3.591522 -11.758462
-0.399199 -2.068091 -11.342852
-0.432783 -1.978295 -11.422942
-0.362526 -2.511768 -10.737019
-0.417344 -2.522972 -10.789328
-0.418367 -1.921328 -11.552243
-0.389869 -1.852633 -11.605527
-0.409623 -2.410338 -10.920942
-0.399568 -2.311952 -10.977041
-0.469621 -1.462403 -12.082247
-0.494467 -1.483861 -12.159361
-0.500608 -1.405468 -12.239334
-0.465741 -1.317242 -12.318105
-0.428645 -1.762351 -11.736868
-0.474918 -1.689629 -11.798707
-0.457125 -1.641254 -11.853589
-0.432889 -1.577075 -11.990578
-0.445087 -2.222076 -11.091399
-0.466101 -2.215545 -11.232076
-0.424287 -3.446092 -11.552530
-0.431599 -3.252615 -11.409867
-0.448520 -3.148926 -11.244044
-0.431471 -2.980761 -11.177526
-0.388382 -2.824977 -11.030507
-0.431178 -2.713701 -10.901001
-0.461307 -3.819120 -11.942919
-0.508479 -3.554906 -11.691776
-0.484400 -2.078402 -11.317582
-0.457218 -1.965503 -11.402767
-0.389354 -2.504596 -10.774106
-0.443063 -2.435637 -10.827979
-0.506910 -1.947811 -11.559854
-0.426189 -1.826186 -11.640792
-0.407571 -2.397836 -10.954927
-0.393827 -2.351661 -10.969108
-0.465981 -1.582126 -12.130964
-0.563941 -1.492792 -12.150368
-0.515974 -1.409175 -12.276382
-0.479780 -1.300654 -12.324590
-0.493671 -1.804771 -11.789852
-0.491031 -1.664405 -11.879302
-0.485493 -1.662283 -11.928607
-0.496584 -1.591828 -11.936409
-0.478839 -2.235447 -11.228313
-0.460259 -2.163295 -11.296142
-0.490986 -3.435788 -11.580615
-0.426143 -3.296985 -11.527139
-0.429491 -3.130159 -11.310168
-0.485941 -3.040055 -11.223692
-0.474950 -2.842769 -10.986773
-0.430907 -2.632486 -10.861274
-0.548456 -3.776038 -11.930103
-0.504579 -3.575866 -11.768697
-0.486544 -2.118442 -11.388893
-0.488167 -1.981405 -11.472603
-0.429249 -2.531998 -10.810577
-0.505322 -2.487635 -10.866153
-0.474058 -1.878331 -11.603692
-0.488873 -1.874221 -11.740745
-0.439026 -2.364071 -10.986299
-0.469653 -2.406035 -11.070299
-0.520476 -1.531521 -12.165023
-0.590589 -1.467535 -12.215392
-0.586249 -1.417561 -12.311140
-0.530031 -1.793452 -11.816681
-0.594249 -1.751627 -11.894656
-0.543435 -1.624011 -12.007645
-0.563888 -1.612711 -12.119797
-0.499453 -2.244520 -11.267003
-0.532110 -2.157443 -11.384308
-0.548537 -3.428393 -11.537929
-0.543402 -3.346059 -11.473438
-0.553096 -3.160382 -11.348622
-0.440074 -2.987739 -11.180640
-0.475126 -2.838683 -11.048222
-0.493368 -2.728098 -10.915398
-0.566250 -3.819287 -11.966091
-0.514223 -3.618619 -11.782664
-0.470954 -2.122065 -11.477487
-0.552210 -1.994990 -11.536235
-0.468965 -2.561660 -10.855180
-0.471091 -2.481045 -10.937021
-0.537377 -1.922721 -11.588727
-0.498890 -1.816993 -11.746479
-0.523591 -2.425842 -11.034786
-0.491183 -2.358717 -11.069178
-0.640783 -1.466041 -12.224990
-0.596589 -1.531160 -12.226716
-0.587741 -1.408690 -12.348282
-0.534556 -1.757247 -11.910877
-0.557267 -1.725184 -11.869298
-0.594827 -1.718054 -11.991143
-0.577462 -1.611342 -12.068396
-0.521642 -2.258533 -11.222843
-0.534434 -2.160365 -11.377439
-0.593830 -3.387707 -11.578727
-0.534398 -3.317888 -11.438724
-0.548729 -3.188976 -11.323986
-0.551295 -2.987700 -11.272219
-0.550853 -2.816150 -11.074958
-0.562080 -2.707781 -10.857868
-0.584760 -3.821612 -11.930816
-0.596822 -3.597977 -11.819183
-0.562814 -2.048665 -11.481628
-0.535030 -1.995458 -11.550125
-0.533310 -2.574885 -10.852366
-0.492396 -2.480916 -10.951543
-0.561870 -1.909638 -11.650786
-0.567892 -1.836297 -11.805237
-0.505392 -2.435112 -11.062928
-0.556765 -2.321355 -11.162945
-0.620778 -1.514900 -12.249651
-0.613677 -1.419752 -12.302266
-0.627308 -1.354925 -12.402866
-0.588214 -1.819708 -11.898874
-0.586129 -1.751576 -11.996927
-0.556588 -1.724693 -12.042263
-0.609333 -1.565739 -12.149369
-0.546947 -2.242278 -11.290150
-0.612901 -2.151563 -11.418685
-0.676005 -3.405598 -11.646823
-0.544427 -3.316363 -11.468192
-0.571921 -3.136836 -11.339077
-0.581183 -3.030363 -11.228894
-0.559235 -2.884133 -11.040927
-0.540480 -2.677190 -10.974923
-0.672918 -3.829282 -11.958795
-0.608456 -3.636540 -11.740259
-0.623635 -2.129058 -11.514176
-0.566070 -2.010779 -11.624025
-0.600530 -2.552293 -10.881093
-0.580709 -2.550453 -10.976224
-0.568603 -1.983358 -11.760892
-0.585123 -1.795291 -11.890927
-0.528151 -2.425438 -11.091082
-0.563390 -2.394827 -11.183351
-0.633104 -1.552269 -12.320223
-0.668405 -1.458708 -12.331599
-0.703061 -1.399772 -12.492000
-0.702765 -1.810768 -11.965466
-0.612909 -1.747261 -12.034111
-0.670970 -1.666468 -12.108723
-0.678714 -1.609751 -12.183954
-0.558740 -2.286347 -11.298127
-0.612933 -2.142696 -11.498330
-0.667865 -3.425010 -11.627180
-0.602083 -3.295294 -11.490847
-0.630702 -3.149390 -11.335299
-0.664076 -3.006081 -11.216458
-0.621395 -2.860890 -11.080480
-0.627089 -2.660340 -10.900764
-0.660694 -3.839540 -12.014323
-0.659686 -3.562676 -11.789163
-0.593896 -2.072533 -11.537440
-0.687092 -1.968279 -11.663845
-0.559011 -2.592954 -10.928366
-0.600714 -2.532777 -11.010832
-0.649573 -1.997833 -11.743218
-0.721465 -1.869001 -11.889238
-0.614210 -2.479804 -11.161075
-0.640401 -2.363580 -11.190355
-0.753372 -1.535816 -12.330521
-0.686916 -1.458963 -12.382553
-0.696410 -1.793743 -11.998890
-0.703254 -1.755606 -12.128178
-0.730656 -1.760244 -12.137200
-0.728411 -1.625509 -12.252805
-0.640883 -2.299202 -11.348064
-0.686063 -2.199696 -11.501111
-0.669098 -3.486934 -11.635534
-0.724210 -3.315002 -11.513059
-0.645187 -3.148581 -11.310440
-0.655566 -3.006055 -11.201302
-0.604851 -2.874228 -11.046805
-0.633227 -2.649388 -10.919576
-0.672424 -3.580304 -11.793364
-0.657523 -2.145047 -11.608849
-0.625748 -2.004761 -11.695747
-0.635362 -2.603377 -10.964360
-0.612898 -2.582449 -11.025714
-0.664866 -1.942761 -11.810289
-0.729489 -1.880573 -11.928555
-0.666515 -2.430213 -11.134154
-0.641792 -2.343643 -11.225651
-0.695769 -1.555695 -12.402813
-0.707906 -1.502547 -12.439912
-0.746847 -1.852938 -12.057926
-0.699428 -1.688600 -12.129208
-0.718549 -1.640308 -12.269511
-0.752454 -1.607932 -12.272696
-0.678482 -2.329773 -11.384243
-0.690233 -2.146203 -11.566903
-0.705880 -3.429086 -11.688251
-0.665279 -3.337827 -11.508978
-0.683877 -3.177478 -11.354611
-0.685431 -2.995734 -11.227780
-0.729014 -2.857878 -11.079744
-0.577153 -2.657589 -10.960353
-0.686395 -3.601328 -11.796973
-0.707515 -2.106717 -11.618438
-0.769140 -2.017511 -11.757435
-0.678437 -2.616162 -11.069538
-0.568619 -2.566378 -11.119353
-0.696527 -1.933271 -11.819770
-0.686405 -1.869200 -11.966048
-0.683764 -2.479657 -11.172389
-0.691563 -2.434487 -11.282425
-0.776653 -1.541368 -12.397470
-0.782663 -1.528047 -12.494936
-0.800932 -1.861181 -12.092360
-0.808617 -1.776361 -12.165256
-0.745810 -1.648564 -12.259572
-0.766308 -1.675892 -12.326955
-0.730931 -2.283216 -11.395088
-0.716396 -2.236982 -11.597873
-0.755082 -3.457583 -11.632651
-0.713453 -3.352573 -11.521367
-0.786551 -3.127592 -11.314113
-0.728914 -3.032301 -11.215287
-0.680019 -2.856254 -11.055572
-0.675258 -2.640607 -10.933143
-0.694525 -3.586605 -11.790159
-0.775498 -2.126209 -11.686963
-0.751990 -2.100130 -11.787941
-0.693063 -2.554818 -11.112468
-0.726592 -2.585157 -11.130281
-0.749782 -2.014981 -11.897571
-0.737409 -1.886251 -12.033318
-0.696156 -2.458518 -11.244931
-0.741507 -2.364252 -11.327465
-0.806804 -1.575285 -12.513015
-0.854154 -1.467738 -12.559500
-0.779260 -1.782977 -12.070167
-0.804180 -1.682295 -12.202666
-0.797232 -1.732438 -12.335179
-0.803552 -1.639226 -12.335439
-0.743979 -2.315406 -11.452066
-0.716335 -2.228079 -11.608521
-0.798460 -3.447958 -11.637085
-0.776915 -3.354715 -11.513178
-0.781205 -3.130542 -11.384590
-0.772640 -3.031306 -11.284065
-0.792650 -2.840458 -11.091282
-0.749467 -2.690476 -11.004029
-0.741065 -3.635382 -11.857840
-0.725461 -2.165608 -11.675007
-0.800875 -2.060861 -11.886629
-0.702443 -2.617423 -11.103922
-0.724963 -2.509441 -11.199852
-0.751743 -1.985527 -11.980953
-0.815192 -1.905040 -12.012656
-0.777761 -2.470362 -11.281307
-0.797626 -2.425644 -11.364958
-0.863650 -1.587507 -12.481048
-0.820408 -1.886700 -12.136476
-0.846119 -1.759027 -12.269445
-0.820037 -1.673904 -12.335611
-0.851065 -1.640214 -12.442464
-0.822969 -2.349914 -11.561563
-0.852034 -2.271860 -11.680473
-0.826966 -3.425553 -11.598683
-0.757690 -3.293273 -11.535651
-0.811819 -3.154778 -11.321901
-0.780145 -3.019677 -11.220993
-0.782788 -2.865448 -11.083813
-0.830440 -2.795393 -11.010281
-0.830779 -3.646487 -11.824889
-0.823054 -2.204059 -11.739702
-0.787599 -2.057732 -11.910642
-0.732439 -2.609210 -11.104734
-0.814330 -2.547468 -11.240434
-0.852233 -1.927780 -11.976102
-0.810066 -1.918019 -12.142193
-0.821404 -2.505729 -11.259766
-0.809503 -2.455399 -11.408412
-0.991157 -1.530241 -12.592633
-0.879872 -1.850202 -12.254329
-0.931357 -1.770922 -12.280885
-0.859588 -1.679800 -12.360647
-0.909730 -1.670451 -12.476443
-0.874092 -2.303423 -11.542734
-0.782596 -2.280560 -11.693910
-0.850773 -3.454591 -11.631123
-0.827963 -3.287690 -11.496957
-0.828718 -3.204828 -11.351349
-0.772241 -3.050379 -11.263706
-0.852556 -2.867417 -11.049611
-0.776586 -2.747257 -11.105109
-0.826746 -3.611189 -11.869355
-0.801223 -2.160039 -11.798218
-0.878516 -2.007683 -11.925462
-0.776619 -2.643531 -11.158887
-0.755882 -2.625373 -11.272800
-0.865723 -1.954993 -12.056966
-0.915015 -1.865824 -12.155456
-0.821575 -2.472182 -11.308400
-0.785094 -2.415979 -11.455181
-0.910016 -1.608860 -12.675416
-0.956771 -1.797100 -12.289849
-0.973338 -1.772660 -12.384052
-0.997044 -1.773079 -12.499731
-0.949701 -1.626160 -12.537624
-0.866626 -2.309142 -11.581770
-0.930776 -2.260564 -11.784738
-0.841955 -3.475752 -11.621238
-0.863419 -3.338624 -11.534083
-0.898779 -3.122425 -11.390156
-0.847763 -3.053099 -11.258801
-0.882211 -2.873261 -11.111959
-0.835617 -2.724267 -11.092770
-0.945594 -2.202978 -11.842950
-0.879970 -2.041269 -11.976124
-0.815689 -2.597960 -11.194002
-0.864442 -2.592674 -11.263208
-0.894526 -2.006760 -12.125432
-0.896886 -1.874691 -12.167880
-0.870874 -2.485115 -11.366381
-0.907372 -2.428647 -11.514756
-1.019762 -1.856707 -12.325415
-0.983217 -1.775538 -12.400926
-0.992115 -1.785492 -12.511411
-0.989291 -1.653442 -12.592248
-0.913099 -2.345698 -11.658663
-0.985675 -2.227337 -11.815551
-0.908529 -3.416972 -11.637446
-0.892764 -3.284799 -11.530870
-0.940666 -3.154249 -11.435892
-0.848870 -3.085978 -11.242986
-0.924696 -2.878221 -11.116841
-0.937399 -2.735137 -11.090385
-0.958466 -2.162179 -11.872803
-0.919019 -2.144104 -12.012746
-0.900876 -2.662716 -11.184408
-0.865677 -2.575366 -11.342599
-0.965108 -1.986162 -12.087670
-0.982491 -1.876392 -12.260699
-0.903778 -2.532662 -11.488756
-0.921026 -2.439327 -11.563087
-1.030065 -1.841358 -12.336063
-0.963159 -1.725405 -12.455546
-1.004479 -1.751137 -12.530858
-1.021066 -1.664365 -12.640304
-0.876373 -2.320291 -11.687532
-0.938676 -2.322498 -11.808408
-0.957611 -3.423303 -11.630648
-0.959043 -3.292543 -11.515527
-0.887744 -3.199518 -11.446336
-0.908500 -3.045741 -11.279281
-0.952591 -2.851202 -11.078026
-0.952369 -2.763830 -11.134056
-1.001762 -2.201167 -11.941004
-0.992486 -2.163095 -12.047936
-0.908757 -2.682213 -11.263239
-0.948530 -2.592110 -11.319889
-0.919794 -1.995220 -12.107720
-0.936864 -1.925052 -12.367938
-0.951383 -2.502564 -11.507058
-0.936662 -2.434434 -11.529880
-0.983692 -1.879307 -12.423798
-1.042840 -1.776712 -12.538839
-1.072060 -1.709685 -12.579435
-1.094815 -1.714379 -12.695166
-1.033502 -2.312718 -11.692960
-0.976606 -2.265447 -11.847889
-0.960576 -3.406415 -11.621624
-0.989362 -3.345479 -11.556843
-1.007740 -3.181520 -11.367589
-1.058308 -2.981025 -11.277384
-0.970286 -2.850506 -11.075677
-0.891894 -2.830149 -11.201029
-1.021834 -2.186213 -11.977650
-1.018160 -2.109334 -12.078984
-1.003313 -2.640840 -11.305004
-1.000686 -2.624345 -11.443038
-1.015513 -2.011992 -12.224410
-1.073794 -1.967804 -12.334485
-0.915716 -2.516583 -11.581729
-1.020034 -2.473590 -11.611379
-1.070554 -1.860232 -12.444467
-1.053261 -1.820554 -12.503758
-1.054966 -1.702070 -12.632161
-1.073030 -1.661106 -12.777137
-1.073918 -2.429228 -11.803796
-1.004328 -2.268514 -11.913917
-1.090003 -3.407660 -11.660121
-1.015616 -3.320047 -11.547850
-1.003447 -3.162421 -11.428742
-0.997264 -3.035835 -11.275546
-1.006203 -2.942720 -11.118495
-0.986179 -2.783097 -11.248302
-1.069081 -2.186614 -12.037382
-1.067068 -2.137110 -12.165318
-0.984476 -2.704125 -11.349087
-1.017065 -2.563466 -11.464573
-1.104935 -2.043713 -12.291524
-1.080755 -1.989332 -12.391682
-1.022435 -2.510515 -11.571779
-1.008051 -2.472144 -11.639503
-1.162103 -1.828132 -12.548662
-1.109721 -1.787867 -12.554957
-1.184834 -1.741858 -12.626951
-1.138084 -1.665177 -12.810576
-1.045420 -2.321739 -11.816166
-1.084328 -2.354515 -12.003443
-1.032331 -3.437628 -11.636470
-1.066790 -3.404096 -11.548579
-1.028516 -3.155781 -11.437548
-1.027596 -3.035296 -11.236703
-1.009201 -2.869422 -11.141198
-1.053660 -2.846826 -11.249878
-1.115034 -2.219530 -12.049527
-1.067704 -2.153956 -12.232542
-1.030583 -2.695270 -11.369766
-1.058743 -2.667677 -11.410038
-1.106929 -2.021554 -12.289376
-1.105434 -1.940805 -12.418391
-1.097762 -2.564154 -11.593288
-1.094092 -2.490501 -11.716822
-1.169753 -1.901524 -12.554458
-1.220285 -1.807318 -12.689523
-1.170785 -1.744094 -12.710964
-1.135090 -2.430464 -11.879836
-1.126539 -2.278635 -12.030408
-1.094726 -3.350003 -11.573261
-1.036993 -3.241562 -11.402116
-1.076390 -3.050846 -11.272337
-1.084916 -2.913750 -11.163377
-1.068712 -2.805513 -11.295661
-1.178364 -2.209855 -12.115371
-1.132226 -2.168929 -12.252638
-1.043582 -2.706698 -11.420147
-1.139510 -2.717781 -11.525726
-1.103509 -1.995678 -12.316848
-1.170964 -1.915391 -12.463789
-1.131549 -2.607869 -11.711926
-1.125365 -2.508750 -11.742829
-1.197202 -1.870152 -12.584358
-1.237927 -1.770271 -12.704160
-1.295740 -1.760009 -12.768992
-1.174802 -2.361007 -11.945012
-1.167750 -2.258469 -12.067427
-1.108601 -3.296207 -11.541063
-1.138001 -3.142596 -11.430786
-1.091495 -2.959085 -11.232345
-1.096685 -2.896572 -11.226547
-1.064167 -2.871904 -11.288868
-1.149372 -2.202782 -12.176783
-1.164436 -2.173010 -12.327234
-1.108220 -2.672080 -11.512595
-1.048391 -2.695886 -11.545160
-1.199133 -2.078734 -12.424156
-1.193238 -1.939467 -12.513967
-1.148416 -2.624995 -11.657455
-1.096577 -2.505436 -11.745430
-1.231510 -1.902499 -12.672026
-1.289610 -1.830926 -12.735763
-1.286939 -1.779184 -12.827183
-1.149060 -2.401387 -11.960510
-1.203792 -2.333655 -12.124269
-1.137780 -3.305924 -11.593365
-1.188693 -3.201705 -11.401429
-1.109123 -3.046376 -11.258552
-1.102901 -2.987376 -11.229045
-1.136022 -2.794619 -11.389854
-1.203331 -2.242932 -12.284238
-1.210213 -2.137984 -12.337737
-1.155147 -2.668475 -11.533781
-1.135481 -2.633087 -11.606954
-1.253749 -2.049902 -12.445377
-1.183779 -1.962709 -12.547651
-1.155064 -2.610286 -11.790345
-1.202073 -2.486761 -11.878750
-1.208727 -2.447831 -12.008280
-1.288709 -2.319694 -12.135860
-1.187024 -3.192994 -11.387010
-1.131806 -3.057801 -11.286098
-1.173059 -2.966883 -11.344407
-1.249826 -2.877601 -11.481525
-1.264845 -2.259170 -12.260484
-1.277443 -2.166540 -12.368012
-1.187719 -2.724072 -11.557963
-1.229546 -2.693818 -11.577504
-1.338677 -2.062125 -12.481948
-1.273015 -1.969607 -12.662333
-1.160184 -2.576680 -11.781980
-1.177726 -2.534749 -11.860813
-1.255460 -2.412430 -12.078058
-1.289663 -2.329329 -12.183036
-1.225598 -3.186062 -11.448939
-1.193890 -3.042428 -11.280003
-1.243996 -2.962294 -11.361596
-1.209446 -2.797038 -11.528365
-1.338205 -2.286868 -12.293695
-1.357723 -2.187695 -12.447242
-1.221245 -2.776593 -11.624841
-1.271092 -2.643617 -11.667834
-1.249494 -2.585671 -11.875359
-1.320887 -2.530905 -11.925893
-1.354374 -2.457914 -12.161045
-1.365787 -2.366884 -12.246640
-1.222180 -3.223039 -11.480927
-1.204773 -3.078496 -11.250730
-1.256210 -2.923144 -11.383278
-1.266836 -2.887120 -11.514028
-1.288480 -2.791331 -11.648395
-1.366125 -2.645208 -11.731584
-1.322593 -2.606784 -11.892920
-1.339240 -2.505072 -11.987776
-1.304625 -3.218622 -11.418941
-1.285330 -3.102600 -11.357465
-1.231815 -2.953775 -11.381327
-1.335316 -2.924566 -11.541487
-1.286562 -2.753732 -11.704610
-1.296383 -2.725977 -11.805407
-1.375407 -2.702899 -11.882550
-1.348949 -2.558149 -11.974582
-1.276862 -3.216160 -11.419384
-1.275683 -3.029164 -11.269539
-1.315319 -3.010656 -11.447014
-1.362159 -2.869711 -11.642170
-1.369656 -2.837190 -11.706423
-1.318973 -2.765616 -11.799807
-1.316103 -3.177298 -11.456565
-1.310191 -3.032838 -11.410935
-1.329057 -2.964590 -11.484536
-1.335920 -2.840912 -11.696536
-1.422972 -3.152158 -11.462071
-1.360163 -2.988552 -11.569676
1.346797 -3.399730 -11.366822
1.418119 -3.344409 -11.419707
1.358618 -3.219676 -11.499718
1.462913 -2.481536 -12.304212
1.438067 -2.336422 -12.431291
1.377424 -3.350017 -11.356635
1.366983 -3.292210 -11.410530
1.362766 -3.230060 -11.524923
1.420474 -3.131575 -11.590155
1.365156 -3.140295 -11.707155
1.393080 -2.952474 -11.756702
1.441033 -2.326865 -12.526214
1.535227 -2.149083 -12.621883
1.434680 -2.824317 -12.003269
1.446760 -2.799499 -12.010537
1.495438 -2.059766 -12.649593
1.526155 -2.034085 -12.845782
1.421548 -2.711197 -12.108659
1.426826 -2.627300 -12.182081
1.447736 -2.500018 -12.290387
1.441069 -2.403179 -12.405840
1.342754 -3.389006 -11.341748
1.334838 -3.268409 -11.395605
1.397895 -3.227061 -11.469859
1.404893 -3.061854 -11.516338
1.352024 -2.999870 -11.639730
1.351203 -2.949018 -11.767459
1.472096 -2.277309 -12.523358
1.426766 -2.230474 -12.568492
1.382017 -2.813628 -11.854785
1.400383 -2.742500 -11.929480
1.462907 -2.047147 -12.664871
1.509378 -1.967978 -12.789555
1.369031 -2.657871 -12.072363
1.446566 -2.642198 -12.107401
1.391433 -2.495985 -12.204069
1.433105 -2.362275 -12.269299
1.272307 -3.367228 -11.424977
1.227140 -3.293180 -11.255910
1.273353 -3.161123 -11.380674
1.285119 -3.069072 -11.542136
1.280316 -2.943074 -11.576445
1.340073 -2.946923 -11.753372
1.410387 -2.323916 -12.406944
1.431207 -2.185462 -12.516220
1.294534 -2.794406 -11.835076
1.323035 -2.765624 -11.904621
1.482018 -2.140666 -12.612660
1.485760 -2.045681 -12.740164
1.332611 -2.702918 -11.986491
1.387424 -2.610296 -12.110879
1.424213 -1.898729 -12.763529
1.288103 -2.452315 -12.168587
1.351118 -2.342548 -12.274584
1.267056 -3.435532 -11.380722
1.245650 -3.263056 -11.307197
1.245891 -3.258566 -11.426333
1.261402 -3.107065 -11.469478
1.289162 -2.970680 -11.553520
1.297269 -2.908047 -11.716487
1.362097 -2.250191 -12.382292
1.370086 -2.183323 -12.427484
1.246760 -2.767913 -11.733531
1.303649 -2.799119 -11.834711
1.370788 -2.123173 -12.531459
1.392566 -1.988162 -12.683193
1.305152 -2.654092 -11.944425
1.330354 -2.607964 -12.015993
1.374797 -1.880263 -12.671105
1.277823 -2.446567 -12.122544
1.293433 -2.253284 -12.203627
1.254553 -3.390719 -11.382675
1.236288 -3.249293 -11.286781
1.194376 -3.144281 -11.362617
1.206375 -3.094519 -11.416825
1.235773 -3.019123 -11.502892
1.275020 -2.893523 -11.630120
1.284640 -2.295831 -12.306755
1.346086 -2.125360 -12.384325
1.268817 -2.758469 -11.730049
1.285211 -2.748061 -11.825697
1.359577 -2.092456 -12.495062
1.355682 -1.997837 -12.542311
1.295155 -2.659730 -11.919335
1.238874 -2.520005 -11.953860
1.297099 -1.904604 -12.664042
1.257206 -2.497191 -12.041582
1.224115 -2.328388 -12.119974
1.209335 -3.390267 -11.437103
1.180168 -3.245084 -11.265441
1.086165 -3.150467 -11.266258
1.271366 -3.073935 -11.322947
1.185248 -2.939881 -11.457775
1.209244 -2.842953 -11.596370
1.267420 -2.247774 -12.218486
1.263256 -2.186777 -12.321081
1.214759 -2.813112 -11.668393
1.283713 -2.728932 -11.762694
1.356522 -2.028125 -12.431881
1.331359 -1.952699 -12.561731
1.219568 -2.585286 -11.858403
1.245032 -2.522060 -11.879063
1.248350 -1.912836 -12.590916
1.256042 -1.813443 -12.616524
1.174897 -2.375987 -11.993382
1.240904 -2.351914 -12.041756
1.157529 -3.376694 -11.368657
1.130612 -3.263968 -11.294280
1.141264 -3.125719 -11.228900
1.189382 -3.066820 -11.304495
1.081924 -2.977330 -11.408811
1.155732 -2.905648 -11.523274
1.239522 -2.200701 -12.251038
1.202354 -2.135242 -12.369177
1.156980 -2.773580 -11.590338
1.186482 -2.643644 -11.684771
1.321772 -2.014413 -12.360305
1.275002 -2.012865 -12.459077
1.222852 -2.585578 -11.793915
1.151094 -2.551939 -11.829039
1.310241 -1.898550 -12.524073
1.241643 -1.818592 -12.614626
1.171831 -2.379914 -11.932416
1.132394 -2.273649 -12.038450
1.072255 -3.359861 -11.414036
1.103874 -3.246510 -11.261057
1.053750 -3.099480 -11.150409
1.092799 -2.995333 -11.192478
1.096098 -2.962122 -11.347696
1.076702 -2.815307 -11.459097
1.105184 -3.552481 -11.557109
1.199817 -2.226204 -12.095783
1.182886 -2.149931 -12.225178
1.146765 -2.755429 -11.560188
1.152289 -2.649923 -11.618912
1.175422 -2.013910 -12.274888
1.261682 -1.925323 -12.436406
1.165859 -2.628061 -11.781199
1.172922 -2.491277 -11.826130
1.174574 -1.849731 -12.446792
1.210651 -1.814941 -12.515571
1.199094 -1.701893 -12.610362
1.114022 -2.395892 -11.854225
1.146408 -2.260469 -12.005422
1.030860 -3.334330 -11.381083
1.049617 -3.260366 -11.281701
1.019864 -3.072569 -11.193105
1.090894 -3.046644 -11.180051
1.087272 -2.914741 -11.335850
1.095469 -2.814522 -11.378424
1.083559 -3.565297 -11.539244
1.131895 -2.185404 -12.067710
1.174913 -2.175075 -12.144299
1.119678 -2.711894 -11.526763
1.122306 -2.688604 -11.625712
1.169835 -2.027503 -12.296404
1.242019 -1.955006 -12.384868
1.111753 -2.552861 -11.713819
1.116660 -2.476704 -11.746382
1.116768 -1.850161 -12.367366
1.190104 -1.813081 -12.434440
1.116090 -1.765510 -12.517589
1.145573 -2.424631 -11.818221
1.140864 -2.307110 -11.936451
1.051389 -3.419622 -11.390810
1.006670 -3.207560 -11.295224
1.018952 -3.127374 -11.133269
0.959751 -2.961906 -11.154733
1.022545 -2.953851 -11.288488
1.045413 -2.796330 -11.373257
1.067489 -3.580109 -11.537284
1.095082 -2.199943 -12.068241
1.137962 -2.123486 -12.101088
1.035574 -2.696163 -11.476591
1.069106 -2.598872 -11.530101
1.129902 -2.045698 -12.209098
1.133751 -1.978982 -12.310835
1.082050 -2.607561 -11.670518
1.073000 -2.504910 -11.704213
1.153227 -1.847224 -12.340478
1.104518 -1.787243 -12.390481
1.166202 -1.708115 -12.431867
1.095808 -1.649239 -12.493541
0.972333 -2.421470 -11.838054
1.077301 -2.290422 -11.951246
0.990145 -3.404718 -11.420222
0.937780 -3.312788 -11.298282
1.004357 -3.137045 -11.097123
0.926280 -3.063418 -11.120638
0.985953 -2.950326 -11.195972
1.037403 -2.816206 -11.284534
0.946342 -3.637216 -11.580892
1.071624 -2.174074 -11.978425
1.106439 -2.128453 -12.050417
0.974951 -2.684556 -11.453237
1.043565 -2.606048 -11.493509
1.050185 -1.999818 -12.205382
1.090467 -1.930962 -12.214612
1.061708 -2.579712 -11.641631
1.059805 -2.486599 -11.672198
1.013778 -1.843071 -12.250680
1.095506 -1.763309 -12.349452
1.037975 -1.697793 -12.416120
1.047772 -1.609401 -12.491738
1.017097 -2.414894 -11.747659
1.045875 -2.276003 -11.817617
0.991881 -3.370810 -11.400996
0.966150 -3.265761 -11.311544
0.986686 -3.107542 -11.154714
0.962873 -2.991440 -11.043614
0.979381 -2.887287 -11.199211
0.917288 -2.735663 -11.311862
0.977121 -3.574313 -11.575537
1.050982 -2.172346 -11.968062
0.956536 -2.142744 -12.012534
0.981873 -2.665016 -11.400484
1.030872 -2.618906 -11.442937
1.058921 -1.950432 -12.129241
0.980105 -1.893159 -12.201632
1.012402 -2.482188 -11.538307
1.034601 -2.445745 -11.552386
1.023411 -1.816111 -12.198935
0.979140 -1.771914 -12.258650
1.049467 -1.678880 -12.354245
0.974431 -1.656542 -12.375659
0.933497 -2.336596 -11.756633
0.985704 -2.261439 -11.769919
0.999736 -3.359585 -11.368329
0.905208 -3.243925 -11.265672
0.931299 -3.098921 -11.193582
0.901122 -3.017324 -11.041315
0.874586 -2.889705 -11.121532
0.947696 -2.749136 -11.213343
0.932738 -3.523923 -11.559551
0.978007 -2.164801 -11.901185
0.967705 -2.066671 -11.996932
0.963265 -2.688966 -11.347023
0.975476 -2.641262 -11.417280
0.964161 -1.990614 -12.057440
0.946585 -1.901805 -12.143778
1.007176 -2.480488 -11.472472
0.955288 -2.465564 -11.586924
1.004429 -1.585791 -12.452464
0.934866 -1.873333 -12.161902
0.989929 -1.758377 -12.240769
1.006829 -1.714750 -12.293069
1.011846 -1.640974 -12.379516
0.952068 -2.387026 -11.639562
0.899047 -2.224373 -11.745385
0.879596 -3.383669 -11.430067
0.917304 -3.284889 -11.294387
0.893997 -3.160384 -11.157650
0.813622 -2.961701 -10.990038
0.893552 -2.880636 -11.094471
0.955579 -2.811966 -11.188536
0.916864 -3.544216 -11.623039
0.925003 -2.156824 -11.822556
0.978360 -2.089340 -11.900069
0.920679 -2.656515 -11.295518
0.958045 -2.635050 -11.369550
0.941032 -1.996319 -11.966603
0.910673 -1.877152 -12.075377
0.931542 -2.496360 -11.453396
0.926179 -2.478476 -11.472211
0.958710 -1.500921 -12.448331
0.967063 -1.807276 -12.139674
0.885488 -1.757007 -12.147685
0.944168 -1.680521 -12.230081
0.948943 -1.538359 -12.264125
0.874222 -2.387182 -11.548367
0.922242 -2.236569 -11.661984
0.837082 -3.438359 -11.408371
0.879393 -3.219569 -11.313050
0.879071 -3.147528 -11.197143
0.877783 -2.979690 -11.017223
0.868076 -2.889879 -11.068261
0.804509 -2.795798 -11.122198
0.922552 -3.540837 -11.561745
0.879957 -2.171019 -11.711531
0.908453 -2.034034 -11.888368
0.897794 -2.625858 -11.249564
0.816771 -2.599456 -11.302979
0.882914 -1.972592 -11.939102
0.915697 -1.900585 -12.005925
0.889014 -2.514096 -11.389213
0.871681 -2.406390 -11.468331
0.918373 -1.528714 -12.315320
0.930044 -1.514697 -12.382367
0.853757 -1.811511 -12.046392
0.876112 -1.756363 -12.189638
0.925590 -1.681201 -12.187453
0.932052 -1.660735 -12.262460
0.790601 -2.283588 -11.493177
0.873326 -2.182736 -11.648572
0.844587 -3.365362 -11.420650
0.793501 -3.322114 -11.308198
0.819514 -3.104010 -11.109398
0.810427 -2.917404 -11.038931
0.779667 -2.835784 -11.005736
0.853447 -2.725780 -11.126020
0.912904 -3.542207 -11.564010
0.860207 -2.149541 -11.672362
0.851499 -2.038076 -11.792246
0.820979 -2.652101 -11.232342
0.801906 -2.632716 -11.213935
0.819793 -1.981064 -11.906560
0.875376 -1.854972 -11.992622
0.809087 -2.469946 -11.338215
0.849278 -2.444263 -11.452203
0.867434 -1.573007 -12.257820
0.854354 -1.440723 -12.323393
0.877481 -1.694424 -11.975017
0.902864 -1.774302 -12.083353
0.909164 -1.693432 -12.127453
0.852874 -1.619574 -12.161299
0.824650 -2.332313 -11.536720
0.832221 -2.241438 -11.585217
0.811117 -3.317012 -11.364190
0.793972 -3.266434 -11.311330
0.768861 -3.094145 -11.197488
0.730319 -3.015232 -11.016768
0.747757 -2.800430 -10.949708
0.809361 -2.694045 -11.031037
0.789314 -3.556870 -11.578760
0.811635 -2.090956 -11.655688
0.787277 -2.125342 -11.781298
0.751739 -2.579003 -11.153329
0.766924 -2.607982 -11.198949
0.849508 -1.946702 -11.807012
0.830366 -1.858295 -11.942770
0.773069 -2.496763 -11.297990
0.806828 -2.480855 -11.420130
0.775330 -1.544281 -12.250948
0.821246 -1.452367 -12.212782
0.749880 -1.836569 -11.994073
0.810688 -1.722079 -11.998836
0.784806 -1.686964 -12.068753
0.805910 -1.604971 -12.161878
0.770043 -2.327772 -11.452405
0.788311 -2.182899 -11.568945
0.757583 -3.359656 -11.426628
0.778442 -3.215132 -11.346831
0.799418 -3.080974 -11.162693
0.766451 -2.965405 -11.039093
0.732008 -2.785798 -10.863646
0.773957 -2.725910 -11.027663
0.774138 -3.733548 -11.755742
0.810951 -3.581674 -11.628371
0.817501 -2.088283 -11.623429
0.810610 -2.070734 -11.718643
0.769443 -2.626728 -11.150695
0.786443 -2.570738 -11.197399
0.763977 -1.934169 -11.793945
0.741886 -1.801223 -11.852148
0.798979 -2.456687 -11.254678
0.711235 -2.381089 -11.331798
0.783691 -1.572082 -12.139003
0.789942 -1.476837 -12.238181
0.816675 -1.395919 -12.234994
0.779114 -1.823127 -11.907583
0.797490 -1.703976 -11.943906
0.748751 -1.691332 -12.023646
0.815655 -1.612254 -12.099711
0.718176 -2.238443 -11.357362
0.743841 -2.241279 -11.521496
0.770917 -3.290586 -11.414970
0.716292 -3.279914 -11.355751
0.742365 -3.101380 -11.250024
0.692828 -2.894214 -11.041532
0.722037 -2.823334 -10.864295
0.721883 -2.637582 -10.998121
0.756073 -3.719228 -11.770799
0.729212 -3.554222 -11.564897
0.771768 -2.072395 -11.529454
0.750637 -1.948220 -11.665621
0.738707 -2.615392 -11.054502
0.710327 -2.551429 -11.171160
0.738982 -1.959272 -11.717335
0.721937 -1.838427 -11.850148
0.757217 -2.461412 -11.203702
0.774368 -2.381467 -11.265772
0.732515 -1.534160 -12.168852
0.754771 -1.433298 -12.153506
0.771881 -1.388945 -12.222761
0.763208 -1.776025 -11.841355
0.762049 -1.766151 -11.909383
0.742300 -1.692953 -11.944334
0.699804 -1.631223 -12.078835
0.740393 -2.287961 -11.309681
0.786380 -2.159899 -11.453533
0.641761 -3.346632 -11.415275
0.672144 -3.277336 -11.323719
0.712556 -3.074164 -11.208902
0.647932 -2.975815 -11.024822
0.645357 -2.779272 -10.903257
0.672841 -2.637202 -10.926390
0.738981 -3.753995 -11.838054
0.755573 -3.560156 -11.537969
0.717727 -2.082569 -11.548171
0.716608 -2.019330 -11.665838
0.706445 -2.580817 -11.064293
0.672901 -2.583864 -11.092653
0.681323 -1.949184 -11.729839
0.716923 -1.856541 -11.792693
0.694258 -2.432120 -11.196939
0.649770 -2.386902 -11.274454
0.749195 -1.510210 -12.002024
0.696430 -1.475366 -12.082942
0.737344 -1.432846 -12.149464
0.703362 -1.797220 -11.877131
0.705058 -1.725268 -11.857420
0.679506 -1.673789 -11.865796
0.701278 -1.603604 -11.985818
0.662549 -2.278675 -11.301996
0.610548 -2.156593 -11.395236
0.673889 -3.353892 -11.438413
0.629398 -3.257847 -11.325026
0.616937 -3.112859 -11.151091
0.669858 -2.967550 -11.048539
0.631651 -2.830201 -10.925618
0.641497 -2.684792 -10.878552
0.679231 -3.722352 -11.750946
0.654611 -3.523129 -11.666563
0.678940 -2.092465 -11.450375
0.679969 -2.033786 -11.507346
0.576480 -2.598437 -11.003234
0.611195 -2.509665 -11.061137
0.694457 -1.930169 -11.661203
0.639896 -1.814264 -11.731187
0.668317 -2.454723 -11.088359
0.646808 -2.362756 -11.182768
0.609589 -1.483289 -11.968359
0.683718 -1.459838 -12.066762
0.664952 -1.372589 -12.081663
0.690962 -1.279707 -12.206345
0.650803 -1.699013 -11.704274
0.656617 -1.665338 -11.809657
0.708564 -1.653069 -11.866085
0.628616 -1.591326 -11.883431
0.631250 -2.298760 -11.276080
0.663891 -2.191652 -11.318764
0.623099 -3.328644 -11.459552
0.549427 -3.219865 -11.319492
0.576369 -3.058257 -11.135001
0.597618 -2.962134 -11.057443
0.587273 -2.867589 -10.931756
0.577410 -2.673936 -10.845628
0.641676 -3.699481 -11.821400
0.628398 -3.513669 -11.613440
0.611829 -2.056781 -11.444709
0.553240 -2.000579 -11.501122
0.636137 -2.552640 -10.874860
0.604760 -2.561642 -11.021487
0.615918 -1.941418 -11.608540
0.653049 -1.838358 -11.651624
0.596973 -2.418670 -11.054802
0.616204 -2.381664 -11.134127
0.584985 -1.500835 -11.963072
0.651410 -1.454151 -12.042361
0.579093 -1.385766 -12.114517
0.636664 -1.315880 -12.133152
0.650409 -1.758794 -11.624457
0.652214 -1.673342 -11.690709
0.650375 -1.249824 -12.170967
0.655366 -1.644206 -11.796738
0.623385 -1.551696 -11.867224
0.585301 -2.304808 -11.152712
0.585843 -2.172612 -11.303471
0.614830 -3.369583 -11.496223
0.628847 -3.239068 -11.372471
0.598563 -3.158970 -11.195449
0.596944 -2.971618 -11.030894
0.569073 -2.847496 -10.902583
0.577901 -2.653118 -10.850777
0.577879 -3.758347 -11.746186
0.585392 -3.519251 -11.608228
0.563365 -2.076706 -11.340206
0.618194 -1.920873 -11.432324
0.538747 -2.537308 -10.911916
0.585594 -2.465373 -10.958962
0.568996 -1.910025 -11.563897
0.608536 -1.821380 -11.667762
0.538614 -2.363882 -11.053141
0.654874 -2.345771 -11.106894
0.616422 -1.459596 -11.880549
0.547619 -1.453900 -12.047837
0.604968 -1.395722 -12.063224
0.547392 -1.244961 -12.112474
0.580234 -1.772801 -11.619003
0.617421 -1.705288 -11.678363
0.578995 -1.214104 -12.098200
0.597979 -1.640872 -11.770880
0.576808 -1.551650 -11.847085
0.570013 -2.290052 -11.150076
0.604419 -2.193399 -11.219430
0.535203 -3.344949 -11.471795
0.554599 -3.313389 -11.347024
0.528763 -3.049355 -11.207661
0.608255 -2.970360 -11.037235
0.487543 -2.851087 -10.940427
0.489539 -2.677129 -10.758509
0.603645 -3.727584 -11.762930
0.549434 -3.562147 -11.662203
0.551012 -2.136554 -11.295366
0.552870 -2.012677 -11.384565
0.574869 -2.538157 -10.833968
0.553533 -2.493303 -10.994316
0.555248 -1.931927 -11.506788
0.510025 -1.826055 -11.627982
0.541286 -2.370703 -11.011802
0.565795 -2.360298 -11.080873
0.587619 -1.471862 -11.805349
0.601685 -1.426051 -11.885429
0.546971 -1.346422 -11.978658
0.605549 -1.298202 -12.045750
0.535924 -1.763337 -11.579478
0.583561 -1.701230 -11.665041
0.592002 -1.230326 -12.082720
0.565245 -1.663918 -11.701124
0.593549 -1.563402 -11.742844
0.520000 -2.215436 -11.117899
0.544264 -2.179796 -11.246764
0.531328 -3.385863 -11.467708
0.503340 -3.225831 -11.356381
0.526758 -3.130605 -11.168590
0.548905 -2.975072 -11.095466
0.552878 -2.801399 -10.931827
0.507055 -2.654489 -10.794572
0.517220 -3.756213 -11.799361
0.569604 -3.554081 -11.654613
0.521470 -2.063617 -11.272732
0.516519 -1.949160 -11.338664
0.489648 -2.598253 -10.807947
0.502375 -2.471317 -10.884310
0.537087 -1.923289 -11.420535
0.538489 -1.774373 -11.538175
0.462439 -2.370246 -10.948181
0.500556 -2.377725 -10.997447
0.523508 -1.447469 -11.753154
0.548472 -1.447744 -11.817772
0.525196 -1.367273 -11.922803
0.503228 -1.303715 -11.948817
0.495882 -1.744514 -11.554375
0.552453 -1.723624 -11.642839
0.518996 -1.210007 -12.033247
0.556735 -1.145246 -12.103985
0.519878 -1.552970 -11.661816
0.524062 -1.542966 -11.712116
0.471397 -2.261803 -11.043491
0.535597 -2.181096 -11.151850
0.489448 -3.367280 -11.428510
0.511056 -3.230148 -11.351705
0.484761 -3.085073 -11.158160
0.516384 -2.979186 -11.142108
0.475302 -2.854606 -10.934928
0.518545 -2.663121 -10.728490
0.470625 -3.690446 -11.804047
0.485924 -3.555897 -11.584916
0.477363 -2.042017 -11.207912
0.464822 -1.962012 -11.326312
0.435821 -2.528042 -10.761163
0.470586 -2.460329 -10.853233
0.498358 -1.832798 -11.398803
0.512410 -1.766226 -11.510625
0.458249 -2.391195 -10.937932
0.485280 -2.355284 -10.944616
0.506914 -1.401648 -11.748832
0.486689 -1.415930 -11.746950
0.500622 -1.386420 -11.824357
0.468303 -1.203917 -11.954895
0.489376 -1.721509 -11.518845
0.468047 -1.656209 -11.560925
0.505879 -1.269819 -12.035452
0.492434 -1.141377 -12.022867
0.480415 -1.587464 -11.623684
0.511700 -1.587775 -11.705547
0.438577 -2.197223 -11.023162
0.437302 -2.143483 -11.111848
0.419753 -3.384810 -11.464674
0.478573 -3.207277 -11.364458
0.415285 -3.062533 -11.222542
0.402776 -2.976984 -11.072624
0.477780 -3.922242 -11.983956
0.409994 -2.814187 -10.960240
0.484567 -2.619163 -10.781351
0.502256 -3.731126 -11.853562
0.525012 -3.544286 -11.619364
0.438310 -2.018663 -11.177528
0.414825 -1.923336 -11.238549
0.429010 -2.517378 -10.772494
0.419516 -2.510609 -10.781486
0.462219 -1.896823 -11.344468
0.463984 -1.797547 -11.407484
0.415512 -2.395734 -10.844364
0.360103 -2.296604 -10.920992
0.451127 -1.450651 -11.775130
0.414001 -1.340713 -11.761646
0.476532 -1.390039 -11.795424
0.483104 -1.250902 -11.851862
0.410262 -1.757040 -11.472176
0.440614 -1.674667 -11.529457
0.441203 -1.276261 -11.960700
0.436085 -1.096033 -12.031536
0.441003 -1.597783 -11.548694
0.444181 -1.540257 -11.636011
0.391525 -2.221529 -11.008625
0.420259 -2.071383 -11.065460
0.419378 -3.421423 -11.427833
0.442519 -3.220745 -11.358037
0.422306 -3.102641 -11.239822
0.428711 -3.002305 -11.099999
0.478128 -3.974590 -11.965599
0.401115 -2.843318 -10.926772
0.353132 -2.686618 -10.772331
0.389556 -3.744346 -11.802503
0.345656 -3.569781 -11.657725
0.422550 -2.019192 -11.147442
0.394957 -1.943414 -11.249878
0.375191 -2.541685 -10.677533
0.380749 -2.468984 -10.751572
0.429804 -1.910103 -11.293972
0.430798 -1.808456 -11.317746
0.403309 -2.335672 -10.847196
0.366944 -2.325863 -10.922242
0.393641 -1.484089 -11.613853
0.364772 -1.413915 -11.720479
0.350536 -1.346430 -11.793097
0.392721 -1.249639 -11.862461
0.413250 -1.773531 -11.404940
0.374707 -1.663855 -11.458319
0.413284 -1.188870 -11.841646
0.404227 -1.174141 -11.913945
0.362042 -1.596799 -11.482882
0.328851 -1.525052 -11.570932
0.424134 -1.064257 -11.986478
0.376619 -2.124156 -10.880607
0.361571 -2.076757 -11.017725
0.360358 -3.399130 -11.482883
0.407521 -3.328278 -11.311555
0.352613 -3.158804 -11.186941
0.394156 -2.943706 -11.071504
0.447072 -3.948344 -11.959631
0.354759 -2.803069 -10.996846
0.371983 -2.664514 -10.750405
0.423951 -3.715410 -11.838777
0.413130 -3.594766 -11.639369
0.395605 -2.046954 -11.112700
0.391135 -1.885720 -11.177906
0.351325 -2.442732 -10.627094
0.360177 -2.434962 -10.659655
0.424402 -1.831984 -11.206796
0.365932 -1.828899 -11.291021
0.323474 -2.372480 -10.766176
0.388339 -2.236428 -10.860056
0.379187 -1.472268 -11.565647
0.347526 -1.473300 -11.615261
0.383250 -1.406390 -11.715875
0.388440 -1.278975 -11.784974
0.362051 -1.724751 -11.375314
0.365166 -1.632348 -11.395454
0.385482 -1.255770 -11.853845
0.310313 -1.159344 -11.860195
0.384287 -1.584218 -11.422817
0.353869 -1.497284 -11.528422
0.405056 -1.064718 -11.922508
0.311098 -2.166353 -10.921101
0.422115 -2.112096 -10.993298
0.294579 -3.376748 -11.468095
0.413652 -3.273753 -11.342322
0.332290 -3.135863 -11.195221
0.323353 -2.974978 -11.114470
0.367677 -3.919635 -12.036538
0.328930 -2.792721 -10.961266
0.344570 -2.647778 -10.753322
0.337789 -3.770085 -11.815852
0.314921 -3.579106 -11.615325
0.337517 -2.030159 -11.055078
0.367626 -1.928696 -11.091185
0.308430 -2.544077 -10.655422
0.323457 -2.431520 -10.611497
0.348891 -1.817040 -11.215194
0.385518 -1.761026 -11.236534
0.363882 -2.398322 -10.690340
0.355492 -2.289111 -10.743751
0.319210 -1.453265 -11.554383
0.329626 -1.381052 -11.595541
0.294579 -1.289596 -11.638816
0.323586 -1.272378 -11.710246
0.297406 -1.691072 -11.324951
0.336573 -1.644934 -11.370609
0.326561 -1.217721 -11.734080
0.407029 -1.179822 -11.867786
0.343167 -1.582008 -11.421288
0.350656 -1.550844 -11.464117
0.322601 -1.046817 -11.929306
0.328909 -1.014656 -11.993797
0.309039 -2.209333 -10.868713
0.334835 -2.064214 -10.928041
0.287654 -3.323777 -11.469593
0.395853 -3.281181 -11.336670
0.320851 -3.133882 -11.222427
0.355102 -2.985916 -11.155671
0.243541 -3.898817 -11.985643
0.301160 -2.813188 -10.931560
0.342277 -2.660700 -10.819791
0.276063 -3.722340 -11.825636
0.350493 -3.561336 -11.705325
0.305332 -1.946005 -10.988425
0.312453 -1.933447 -11.027443
0.294358 -2.529067 -10.626123
0.296806 -2.450155 -10.622229
0.324144 -1.841381 -11.136984
0.303186 -1.784220 -11.250852
0.332850 -2.340211 -10.673958
0.267180 -2.268045 -10.774825
0.302848 -1.455229 -11.472407
0.284323 -1.317173 -11.566110
0.257214 -1.326660 -11.585147
0.301297 -1.307408 -11.648200
0.303171 -1.755987 -11.208526
0.324753 -1.665576 -11.328813
0.273437 -1.224040 -11.672989
0.314255 -1.127200 -11.722843
0.259081 -1.547847 -11.323709
0.282327 -1.493482 -11.409791
0.292533 -1.045712 -11.784996
0.321353 -1.021905 -11.888422
0.291448 -2.125353 -10.817760
0.285054 -2.058964 -10.865918
0.287953 -3.383164 -11.516558
0.298399 -3.282172 -11.404700
0.309361 -3.072566 -11.184388
0.280413 -2.970783 -11.148907
0.301877 -3.906571 -11.978974
0.322493 -2.805152 -10.914767
0.253793 -2.640020 -10.796037
0.312779 -3.763111 -11.853335
0.349879 -3.531860 -11.676545
0.260898 -1.994700 -10.955958
0.306923 -1.899937 -11.073526
0.249184 -2.484782 -10.596451
0.276574 -2.407608 -10.528292
0.219969 -1.800221 -11.102164
0.285763 -1.758486 -11.172288
0.250506 -2.343536 -10.610166
0.289881 -2.327721 -10.687819
0.261419 -1.425919 -11.473136
0.223527 -1.371619 -11.432709
0.246959 -1.309832 -11.567999
0.256441 -1.249875 -11.603662
0.247198 -1.722086 -11.173563
