# .PCD v0.7 - Point Cloud Data file format
VERSION 0.7
FIELDS x y z rgb label
SIZE 4 4 4 4 4
TYPE F F F F U
COUNT 1 1 1 1 1
WIDTH 740
HEIGHT 1
VIEWPOINT 0 0 0 1 0 0 0
POINTS 740
DATA ascii
-0.616276 -3.148454 -11.341062 1.880790849211783e-38 1700951363
-0.609149 -3.011070 -11.209908 1.880790849211783e-38 1700951363
-0.601247 -2.858757 -11.064499 1.880790849211783e-38 1700951363
-0.592335 -2.686953 -10.900486 1.880790849211783e-38 1700951363
-0.649978 -3.798127 -11.961278 1.880790849211783e-38 1700951363
-0.639928 -3.604393 -11.776328 1.880790849211783e-38 1700951363
-0.627777 -2.109837 -11.552725 1.880790849211783e-38 1700951363
-0.633700 -2.024698 -11.661715 1.880790849211783e-38 1700951363
-0.595162 -2.578702 -10.952519 1.880790849211783e-38 1700951363
-0.598779 -2.526701 -11.019087 1.880790849211783e-38 1700951363
-0.639182 -1.945892 -11.762594 1.880790849211783e-38 1700951363
-0.645182 -1.859642 -11.873008 1.880790849211783e-38 1700951363
-0.604536 -2.443950 -11.125016 1.880790849211783e-38 1700951363
-0.609020 -2.379482 -11.207545 1.880790849211783e-38 1700951363
-0.707585 -1.542045 -12.334701 1.880790849211783e-38 1700951363
-0.711620 -1.487341 -12.405045 1.880790849211783e-38 1700951363
-0.688379 -1.802402 -11.999913 1.880790849211783e-38 1700951363
-0.693275 -1.736037 -12.085253 1.880790849211783e-38 1700951363
-0.697460 -1.679303 -12.158206 1.880790849211783e-38 1700951363
-0.701854 -1.619739 -12.234797 1.880790849211783e-38 1700951363
-0.652592 -2.287558 -11.376066 1.880790849211783e-38 1700951363
-0.659630 -2.192153 -11.498744 1.880790849211783e-38 1700951363
-0.665932 -3.425305 -11.608602 1.880790849211783e-38 1700951363
-0.659291 -3.304081 -11.492843 1.880790849211783e-38 1700951363
-0.650871 -3.150372 -11.346061 1.880790849211783e-38 1700951363
-0.643339 -3.012883 -11.214770 1.880790849211783e-38 1700951363
-0.634990 -2.860457 -11.069216 1.880790849211783e-38 1700951363
-0.625571 -2.688527 -10.905035 1.880790849211783e-38 1700951363
-0.675867 -3.606674 -11.781795 1.880790849211783e-38 1700951363
-0.665115 -2.117797 -11.594357 1.880790849211783e-38 1700951363
-0.671413 -2.032408 -11.704155 1.880790849211783e-38 1700951363
-0.630436 -2.587923 -10.989833 1.880790849211783e-38 1700951363
-0.634281 -2.535792 -11.056870 1.880790849211783e-38 1700951363
-0.677244 -1.953368 -11.805793 1.880790849211783e-38 1700951363
-0.683625 -1.866853 -11.917039 1.880790849211783e-38 1700951363
-0.640401 -2.452828 -11.163549 1.880790849211783e-38 1700951363
-0.645169 -2.388190 -11.246664 1.880790849211783e-38 1700951363
-0.747790 -1.548272 -12.382309 1.880790849211783e-38 1700951363
-0.752072 -1.493381 -12.453211 1.880790849211783e-38 1700951363
-0.727414 -1.809482 -12.044910 1.880790849211783e-38 1700951363
-0.732607 -1.742905 -12.130905 1.880790849211783e-38 1700951363
-0.737047 -1.685986 -12.204426 1.880790849211783e-38 1700951363
-0.741709 -1.626226 -12.281618 1.880790849211783e-38 1700951363
-0.689457 -2.296074 -11.416389 1.880790849211783e-38 1700951363
-0.696920 -2.200403 -11.539968 1.880790849211783e-38 1700951363
-0.701386 -3.427486 -11.613931 1.880790849211783e-38 1700951363
-0.694388 -3.306163 -11.498043 1.880790849211783e-38 1700951363
-0.685514 -3.152333 -11.351106 1.880790849211783e-38 1700951363
-0.677577 -3.014736 -11.219675 1.880790849211783e-38 1700951363
-0.668777 -2.862193 -11.073967 1.880790849211783e-38 1700951363
-0.658852 -2.690135 -10.909619 1.880790849211783e-38 1700951363
-0.711857 -3.609005 -11.787316 1.880790849211783e-38 1700951363
-0.702737 -2.125833 -11.636288 1.880790849211783e-38 1700951363
-0.709417 -2.040194 -11.746905 1.880790849211783e-38 1700951363
-0.665965 -2.597230 -11.027397 1.880790849211783e-38 1700951363
-0.670041 -2.544966 -11.094902 1.880790849211783e-38 1700951363
-0.715601 -1.960916 -11.849308 1.880790849211783e-38 1700951363
-0.722371 -1.874135 -11.961400 1.880790849211783e-38 1700951363
-0.676530 -2.461789 -11.202344 1.880790849211783e-38 1700951363
-0.681585 -2.396979 -11.286053 1.880790849211783e-38 1700951363
-0.788321 -1.554562 -12.430287 1.880790849211783e-38 1700951363
-0.792853 -1.499482 -12.501755 1.880790849211783e-38 1700951363
-0.766756 -1.816632 -12.090244 1.880790849211783e-38 1700951363
-0.772252 -1.749840 -12.176908 1.880790849211783e-38 1700951363
-0.776951 -1.692737 -12.251001 1.880790849211783e-38 1700951363
-0.781885 -1.632779 -12.328799 1.880790849211783e-38 1700951363
-0.726596 -2.304672 -11.456996 1.880790849211783e-38 1700951363
-0.734490 -2.208731 -11.581483 1.880790849211783e-38 1700951363
-0.736889 -3.429712 -11.619306 1.880790849211783e-38 1700951363
-0.729531 -3.308289 -11.503290 1.880790849211783e-38 1700951363
-0.720203 -3.154334 -11.356193 1.880790849211783e-38 1700951363
-0.711858 -3.016628 -11.224621 1.880790849211783e-38 1700951363
-0.702608 -2.863967 -11.078759 1.880790849211783e-38 1700951363
-0.694119 -2.699339 -10.944902 1.880790849211783e-38 1700951363
-0.747897 -3.611385 -11.792885 1.880790849211783e-38 1700951363
-0.740644 -2.133946 -11.678518 1.880790849211783e-38 1700951363
-0.747712 -2.048055 -11.789963 1.880790849211783e-38 1700951363
-0.701748 -2.606622 -11.065207 1.880790849211783e-38 1700951363
-0.706060 -2.554226 -11.133190 1.880790849211783e-38 1700951363
-0.754256 -1.968537 -11.893141 1.880790849211783e-38 1700951363
-0.761419 -1.881489 -12.006092 1.880790849211783e-38 1700951363
-0.712922 -2.470832 -11.241398 1.880790849211783e-38 1700951363
-0.718270 -2.405851 -11.325711 1.880790849211783e-38 1700951363
-0.829182 -1.560915 -12.478644 1.880790849211783e-38 1700951363
-0.833969 -1.505646 -12.550681 1.880790849211783e-38 1700951363
-0.806409 -1.823852 -12.135918 1.880790849211783e-38 1700951363
-0.812212 -1.756845 -12.223257 1.880790849211783e-38 1700951363
-0.817174 -1.699554 -12.297934 1.880790849211783e-38 1700951363
-0.822385 -1.639397 -12.376346 1.880790849211783e-38 1700951363
-0.764012 -2.313349 -11.497885 1.880790849211783e-38 1700951363
-0.772346 -2.217139 -11.623293 1.880790849211783e-38 1700951363
-0.772441 -3.431986 -11.624730 1.880790849211783e-38 1700951363
-0.764723 -3.310460 -11.508585 1.880790849211783e-38 1700951363
-0.754938 -3.156377 -11.361323 1.880790849211783e-38 1700951363
-0.746186 -3.018560 -11.229608 1.880790849211783e-38 1700951363
-0.736483 -2.865777 -11.083591 1.880790849211783e-38 1700951363
-0.729741 -2.709048 -10.982117 1.880790849211783e-38 1700951363
-0.783988 -3.613814 -11.798509 1.880790849211783e-38 1700951363
-0.778841 -2.142138 -11.721050 1.880790849211783e-38 1700951363
-0.786303 -2.055992 -11.833338 1.880790849211783e-38 1700951363
-0.737791 -2.616100 -11.103268 1.880790849211783e-38 1700951363
-0.742340 -2.563571 -11.171735 1.880790849211783e-38 1700951363
-0.793211 -1.976233 -11.937299 1.880790849211783e-38 1700951363
-0.800773 -1.888914 -12.051113 1.880790849211783e-38 1700951363
-0.749582 -2.479961 -11.280719 1.880790849211783e-38 1700951363
-0.755225 -2.414806 -11.365642 1.880790849211783e-38 1700951363
-0.870374 -1.567332 -12.527374 1.880790849211783e-38 1700951363
-0.846374 -1.831143 -12.181939 1.880790849211783e-38 1700951363
-0.852489 -1.763919 -12.269958 1.880790849211783e-38 1700951363
-0.857719 -1.706439 -12.345225 1.880790849211783e-38 1700951363
-0.863210 -1.646081 -12.424262 1.880790849211783e-38 1700951363
-0.801708 -2.322109 -11.539059 1.880790849211783e-38 1700951363
-0.810486 -2.225626 -11.665396 1.880790849211783e-38 1700951363
-0.808041 -3.434305 -11.630203 1.880790849211783e-38 1700951363
-0.799962 -3.312676 -11.513927 1.880790849211783e-38 1700951363
-0.789719 -3.158463 -11.366501 1.880790849211783e-38 1700951363
-0.780558 -3.020531 -11.234639 1.880790849211783e-38 1700951363
-0.770401 -2.867623 -11.088456 1.880790849211783e-38 1700951363
-0.765615 -2.718844 -11.019569 1.880790849211783e-38 1700951363
-0.820128 -3.616293 -11.804183 1.880790849211783e-38 1700951363
-0.817329 -2.150408 -11.763889 1.880790849211783e-38 1700951363
-0.825189 -2.064006 -11.877025 1.880790849211783e-38 1700951363
-0.774092 -2.625665 -11.141582 1.880790849211783e-38 1700951363
-0.778883 -2.573002 -11.210539 1.880790849211783e-38 1700951363
-0.832468 -1.984004 -11.981782 1.880790849211783e-38 1700951363
-0.840436 -1.896412 -12.096473 1.880790849211783e-38 1700951363
-0.786510 -2.489173 -11.320304 1.880790849211783e-38 1700951363
-0.792453 -2.423845 -11.405846 1.880790849211783e-38 1700951363
-0.911909 -1.573815 -12.576499 1.880790849211783e-38 1700951363
-0.886662 -1.838507 -12.228310 1.880790849211783e-38 1700951363
-0.893095 -1.771065 -12.317027 1.880790849211783e-38 1700951363
-0.898596 -1.713395 -12.392890 1.880790849211783e-38 1700951363
-0.904372 -1.652833 -12.472555 1.880790849211783e-38 1700951363
-0.839692 -2.330954 -11.580528 1.880790849211783e-38 1700951363
-0.848921 -2.234196 -11.707807 1.880790849211783e-38 1700951363
-0.843695 -3.436672 -11.635727 1.880790849211783e-38 1700951363
-0.835254 -3.314936 -11.519315 1.880790849211783e-38 1700951363
-0.824552 -3.160590 -11.371719 1.880790849211783e-38 1700951363
-0.814980 -3.022541 -11.239708 1.880790849211783e-38 1700951363
-0.804369 -2.869507 -11.093369 1.880790849211783e-38 1700951363
-0.801752 -2.728731 -11.057276 1.880790849211783e-38 1700951363
-0.856324 -3.618823 -11.809912 1.880790849211783e-38 1700951363
-0.856116 -2.158758 -11.807041 1.880790849211783e-38 1700951363
-0.864382 -2.072098 -11.921037 1.880790849211783e-38 1700951363
-0.810662 -2.635320 -11.180155 1.880790849211783e-38 1700951363
-0.815697 -2.582522 -11.249606 1.880790849211783e-38 1700951363
-0.872036 -1.991851 -12.026598 1.880790849211783e-38 1700951363
-0.880417 -1.903986 -12.142179 1.880790849211783e-38 1700951363
-0.823714 -2.498474 -11.360168 1.880790849211783e-38 1700951363
-0.829962 -2.432970 -11.446332 1.880790849211783e-38 1700951363
-0.953788 -1.580364 -12.626012 1.880790849211783e-38 1700951363
-0.927275 -1.845945 -12.275041 1.880790849211783e-38 1700951363
-0.934030 -1.778282 -12.364460 1.880790849211783e-38 1700951363
-0.939806 -1.720420 -12.440926 1.880790849211783e-38 1700951363
-0.945872 -1.659654 -12.521230 1.880790849211783e-38 1700951363
-0.877965 -2.339883 -11.622293 1.880790849211783e-38 1700951363
-0.887652 -2.242849 -11.750525 1.880790849211783e-38 1700951363
-0.879401 -3.439085 -11.641298 1.880790849211783e-38 1700951363
-0.870597 -3.317241 -11.524751 1.880790849211783e-38 1700951363
-0.859434 -3.162759 -11.376985 1.880790849211783e-38 1700951363
-0.849451 -3.024591 -11.244821 1.880790849211783e-38 1700951363
-0.838383 -2.871428 -11.098316 1.880790849211783e-38 1700951363
-0.838151 -2.738710 -11.095234 1.880790849211783e-38 1700951363
-0.895205 -2.167190 -11.850512 1.880790849211783e-38 1700951363
-0.903883 -2.080269 -11.965376 1.880790849211783e-38 1700951363
-0.847499 -2.645064 -11.218987 1.880790849211783e-38 1700951363
-0.852784 -2.592130 -11.288941 1.880790849211783e-38 1700951363
-0.911918 -1.999776 -12.071749 1.880790849211783e-38 1700951363
-0.920717 -1.911634 -12.188232 1.880790849211783e-38 1700951363
-0.861196 -2.507861 -11.400304 1.880790849211783e-38 1700951363
-0.867753 -2.442181 -11.487103 1.880790849211783e-38 1700951363
-0.968216 -1.853457 -12.322132 1.880790849211783e-38 1700951363
-0.975298 -1.785572 -12.412262 1.880790849211783e-38 1700951363
-0.981355 -1.727517 -12.489340 1.880790849211783e-38 1700951363
-0.987716 -1.666544 -12.570292 1.880790849211783e-38 1700951363
-0.916532 -2.348897 -11.664356 1.880790849211783e-38 1700951363
-0.926683 -2.251585 -11.793552 1.880790849211783e-38 1700951363
-0.915161 -3.441546 -11.646921 1.880790849211783e-38 1700951363
-0.905993 -3.319590 -11.530232 1.880790849211783e-38 1700951363
-0.894368 -3.164971 -11.382296 1.880790849211783e-38 1700951363
-0.883972 -3.026682 -11.249979 1.880790849211783e-38 1700951363
-0.872447 -2.873387 -11.103308 1.880790849211783e-38 1700951363
-0.874815 -2.748780 -11.133443 1.880790849211783e-38 1700951363
-0.934599 -2.175703 -11.894300 1.880790849211783e-38 1700951363
-0.943694 -2.088521 -12.010047 1.880790849211783e-38 1700951363
-0.884609 -2.654899 -11.258087 1.880790849211783e-38 1700951363
-0.890145 -2.601829 -11.328546 1.880790849211783e-38 1700951363
-0.952117 -2.007779 -12.117244 1.880790849211783e-38 1700951363
-0.961342 -1.919359 -12.234641 1.880790849211783e-38 1700951363
-0.898959 -2.517337 -11.440722 1.880790849211783e-38 1700951363
-0.905830 -2.451479 -11.528160 1.880790849211783e-38 1700951363
-1.009488 -1.861045 -12.369586 1.880790849211783e-38 1700951363
-1.016902 -1.792935 -12.460435 1.880790849211783e-38 1700951363
-1.023243 -1.734684 -12.538133 1.880790849211783e-38 1700951363
-1.029904 -1.673504 -12.619741 1.880790849211783e-38 1700951363
-0.955391 -2.357997 -11.706717 1.880790849211783e-38 1700951363
-0.966015 -2.260405 -11.836893 1.880790849211783e-38 1700951363
-0.950974 -3.444053 -11.652591 1.880790849211783e-38 1700951363
-0.941439 -3.321984 -11.535762 1.880790849211783e-38 1700951363
-0.929352 -3.167224 -11.387648 1.880790849211783e-38 1700951363
-0.918541 -3.028811 -11.255177 1.880790849211783e-38 1700951363
-0.906557 -2.875382 -11.108335 1.880790849211783e-38 1700951363
-0.911745 -2.758943 -11.171907 1.880790849211783e-38 1700951363
-0.974300 -2.184299 -11.938409 1.880790849211783e-38 1700951363
-0.983819 -2.096853 -12.055050 1.880790849211783e-38 1700951363
-0.921991 -2.664825 -11.297449 1.880790849211783e-38 1700951363
-0.927782 -2.611617 -11.368420 1.880790849211783e-38 1700951363
-0.992635 -2.015861 -12.163083 1.880790849211783e-38 1700951363
-1.002291 -1.927160 -12.281399 1.880790849211783e-38 1700951363
-0.937004 -2.526902 -11.481420 1.880790849211783e-38 1700951363
-0.944193 -2.460865 -11.569504 1.880790849211783e-38 1700951363
-1.051101 -1.868710 -12.417417 1.880790849211783e-38 1700951363
-1.058853 -1.800374 -12.508995 1.880790849211783e-38 1700951363
-1.065483 -1.741927 -12.587322 1.880790849211783e-38 1700951363
-1.072448 -1.680537 -12.669595 1.880790849211783e-38 1700951363
-0.994555 -2.367186 -11.749393 1.880790849211783e-38 1700951363
-1.005658 -2.269312 -11.880556 1.880790849211783e-38 1700951363
-0.986845 -3.446608 -11.658311 1.880790849211783e-38 1700951363
-0.976944 -3.324424 -11.541342 1.880790849211783e-38 1700951363
-0.964391 -3.169520 -11.393045 1.880790849211783e-38 1700951363
-0.953165 -3.030982 -11.260419 1.880790849211783e-38 1700951363
-0.940720 -2.877416 -11.113405 1.880790849211783e-38 1700951363
-0.948951 -2.769202 -11.210636 1.880790849211783e-38 1700951363
-1.014316 -2.192980 -11.982850 1.880790849211783e-38 1700951363
-1.024266 -2.105268 -12.100395 1.880790849211783e-38 1700951363
-0.959654 -2.674845 -11.337087 1.880790849211783e-38 1700951363
-0.965706 -2.621500 -11.408577 1.880790849211783e-38 1700951363
-1.033483 -2.024024 -12.209275 1.880790849211783e-38 1700951363
-1.043577 -1.935040 -12.328525 1.880790849211783e-38 1700951363
-0.975341 -2.536559 -11.522408 1.880790849211783e-38 1700951363
-0.982853 -2.470342 -11.611146 1.880790849211783e-38 1700951363
-1.093057 -1.876452 -12.465621 1.880790849211783e-38 1700951363
-1.101152 -1.807888 -12.557940 1.880790849211783e-38 1700951363
-1.108076 -1.749243 -12.636905 1.880790849211783e-38 1700951363
-1.115349 -1.687641 -12.719848 1.880790849211783e-38 1700951363
-1.034023 -2.376464 -11.792377 1.880790849211783e-38 1700951363
-1.045612 -2.278306 -11.924541 1.880790849211783e-38 1700951363
-1.022774 -3.449211 -11.664084 1.880790849211783e-38 1700951363
-1.012504 -3.326910 -11.546969 1.880790849211783e-38 1700951363
-0.999485 -3.171859 -11.398492 1.880790849211783e-38 1700951363
-0.987842 -3.033193 -11.265703 1.880790849211783e-38 1700951363
-0.974935 -2.879488 -11.118515 1.880790849211783e-38 1700951363
-0.986432 -2.779556 -11.249628 1.880790849211783e-38 1700951363
-1.054651 -2.201746 -12.027626 1.880790849211783e-38 1700951363
-1.065038 -2.113767 -12.146085 1.880790849211783e-38 1700951363
-0.997600 -2.684959 -11.376997 1.880790849211783e-38 1700951363
-1.003915 -2.631475 -11.449013 1.880790849211783e-38 1700951363
-1.074661 -2.032269 -12.255822 1.880790849211783e-38 1700951363
-1.085200 -1.942999 -12.376019 1.880790849211783e-38 1700951363
-1.013970 -2.546307 -11.563685 1.880790849211783e-38 1700951363
-1.021810 -2.479910 -11.653088 1.880790849211783e-38 1700951363
-1.135358 -1.884272 -12.514208 1.880790849211783e-38 1700951363
-1.143801 -1.815478 -12.607273 1.880790849211783e-38 1700951363
-1.151024 -1.756634 -12.686883 1.880790849211783e-38 1700951363
-1.158611 -1.694818 -12.770510 1.880790849211783e-38 1700951363
-1.073797 -2.385831 -11.835673 1.880790849211783e-38 1700951363
-1.085880 -2.287387 -11.968854 1.880790849211783e-38 1700951363
-1.058758 -3.451862 -11.669909 1.880790849211783e-38 1700951363
-1.048119 -3.329440 -11.552644 1.880790849211783e-38 1700951363
-1.034632 -3.174241 -11.403981 1.880790849211783e-38 1700951363
-1.022570 -3.035444 -11.271031 1.880790849211783e-38 1700951363
-1.011975 -2.889521 -11.154256 1.880790849211783e-38 1700951363
-1.024189 -2.790005 -11.288883 1.880790849211783e-38 1700951363
-1.095305 -2.210598 -12.072735 1.880790849211783e-38 1700951363
-1.106136 -2.122350 -12.192123 1.880790849211783e-38 1700951363
-1.035830 -2.695168 -11.417184 1.880790849211783e-38 1700951363
-1.042411 -2.641544 -11.489731 1.880790849211783e-38 1700951363
-1.116171 -2.040595 -12.302724 1.880790849211783e-38 1700951363
-1.127163 -1.951038 -12.423882 1.880790849211783e-38 1700951363
-1.052893 -2.556149 -11.605256 1.880790849211783e-38 1700951363
-1.061064 -2.489569 -11.695329 1.880790849211783e-38 1700951363
-1.178014 -1.892173 -12.563185 1.880790849211783e-38 1700951363
-1.186812 -1.823148 -12.657010 1.880790849211783e-38 1700951363
-1.194338 -1.764101 -12.737272 1.880790849211783e-38 1700951363
-1.113888 -2.395290 -11.879293 1.880790849211783e-38 1700951363
-1.126472 -2.296558 -12.013498 1.880790849211783e-38 1700951363
-1.083795 -3.332016 -11.558367 1.880790849211783e-38 1700951363
-1.069838 -3.176666 -11.409520 1.880790849211783e-38 1700951363
-1.057356 -3.037735 -11.276402 1.880790849211783e-38 1700951363
-1.049518 -2.900315 -11.192808 1.880790849211783e-38 1700951363
-1.062233 -2.800554 -11.328415 1.880790849211783e-38 1700951363
-1.136288 -2.219539 -12.118191 1.880790849211783e-38 1700951363
-1.147571 -2.131019 -12.238519 1.880790849211783e-38 1700951363
-1.074352 -2.705475 -11.457657 1.880790849211783e-38 1700951363
-1.081205 -2.651710 -11.530738 1.880790849211783e-38 1700951363
-1.158024 -2.049006 -12.350000 1.880790849211783e-38 1700951363
-1.169476 -1.959159 -12.472127 1.880790849211783e-38 1700951363
-1.092118 -2.566086 -11.647129 1.880790849211783e-38 1700951363
-1.100628 -2.499322 -11.737882 1.880790849211783e-38 1700951363
-1.221028 -1.900155 -12.612554 1.880790849211783e-38 1700951363
-1.230186 -1.830896 -12.707150 1.880790849211783e-38 1700951363
-1.238020 -1.771646 -12.788074 1.880790849211783e-38 1700951363
-1.154295 -2.404842 -11.923238 1.880790849211783e-38 1700951363
-1.167388 -2.305820 -12.058484 1.880790849211783e-38 1700951363
-1.119531 -3.334640 -11.564142 1.880790849211783e-38 1700951363
-1.105102 -3.179134 -11.415102 1.880790849211783e-38 1700951363
-1.092199 -3.040068 -11.281818 1.880790849211783e-38 1700951363
-1.087340 -2.911210 -11.231626 1.880790849211783e-38 1700951363
-1.100563 -2.811202 -11.368218 1.880790849211783e-38 1700951363
-1.177603 -2.228569 -12.163996 1.880790849211783e-38 1700951363
-1.189344 -2.139775 -12.285275 1.880790849211783e-38 1700951363
-1.113168 -2.715880 -11.498415 1.880790849211783e-38 1700951363
-1.120295 -2.661973 -11.572041 1.880790849211783e-38 1700951363
-1.200222 -2.057502 -12.397643 1.880790849211783e-38 1700951363
-1.212141 -1.967364 -12.520757 1.880790849211783e-38 1700951363
-1.131648 -2.576117 -11.689303 1.880790849211783e-38 1700951363
-1.140500 -2.509170 -11.780744 1.880790849211783e-38 1700951363
-1.264405 -1.908218 -12.662322 1.880790849211783e-38 1700951363
-1.273929 -1.838724 -12.757697 1.880790849211783e-38 1700951363
-1.282077 -1.779270 -12.839293 1.880790849211783e-38 1700951363
-1.195024 -2.414487 -11.967510 1.880790849211783e-38 1700951363
-1.208634 -2.315173 -12.103807 1.880790849211783e-38 1700951363
-1.155327 -3.337308 -11.569964 1.880790849211783e-38 1700951363
-1.140425 -3.181645 -11.420732 1.880790849211783e-38 1700951363
-1.127099 -3.042441 -11.287278 1.880790849211783e-38 1700951363
-1.125444 -2.922206 -11.270708 1.880790849211783e-38 1700951363
-1.139184 -2.821950 -11.408300 1.880790849211783e-38 1700951363
-1.219253 -2.237689 -12.210152 1.880790849211783e-38 1700951363
-1.231460 -2.148619 -12.332393 1.880790849211783e-38 1700951363
-1.152281 -2.726383 -11.539460 1.880790849211783e-38 1700951363
-1.159688 -2.672334 -11.613635 1.880790849211783e-38 1700951363
-1.242771 -2.066084 -12.445664 1.880790849211783e-38 1700951363
-1.255164 -1.975652 -12.569775 1.880790849211783e-38 1700951363
-1.171486 -2.586246 -11.731785 1.880790849211783e-38 1700951363
-1.180686 -2.519113 -11.823920 1.880790849211783e-38 1700951363
-1.236076 -2.424227 -12.012114 1.880790849211783e-38 1700951363
-1.250211 -2.324620 -12.149478 1.880790849211783e-38 1700951363
-1.175805 -3.184200 -11.426407 1.880790849211783e-38 1700951363
-1.162055 -3.044856 -11.292783 1.880790849211783e-38 1700951363
-1.163833 -2.933306 -11.310058 1.880790849211783e-38 1700951363
-1.178095 -2.832800 -11.448662 1.880790849211783e-38 1700951363
-1.261241 -2.246900 -12.256662 1.880790849211783e-38 1700951363
-1.273920 -2.157552 -12.379878 1.880790849211783e-38 1700951363
-1.191692 -2.736986 -11.580796 1.880790849211783e-38 1700951363
-1.199383 -2.682794 -11.655531 1.880790849211783e-38 1700951363
-1.285670 -2.074753 -12.494063 1.880790849211783e-38 1700951363
-1.298545 -1.984024 -12.619184 1.880790849211783e-38 1700951363
-1.211633 -2.596473 -11.774574 1.880790849211783e-38 1700951363
-1.221186 -2.529152 -11.867412 1.880790849211783e-38 1700951363
-1.277461 -2.434064 -12.057055 1.880790849211783e-38 1700951363
-1.292130 -2.334161 -12.195501 1.880790849211783e-38 1700951363
-1.211250 -3.186798 -11.432131 1.880790849211783e-38 1700951363
-1.197073 -3.047312 -11.298332 1.880790849211783e-38 1700951363
-1.202514 -2.944509 -11.349682 1.880790849211783e-38 1700951363
-1.217308 -2.843754 -11.489311 1.880790849211783e-38 1700951363
-1.303576 -2.256203 -12.303538 1.880790849211783e-38 1700951363
-1.316736 -2.166575 -12.427741 1.880790849211783e-38 1700951363
-1.231412 -2.747691 -11.622432 1.880790849211783e-38 1700951363
-1.239390 -2.693356 -11.697732 1.880790849211783e-38 1700951363
-1.252099 -2.606800 -11.817681 1.880790849211783e-38 1700951363
-1.262011 -2.539291 -11.911234 1.880790849211783e-38 1700951363
-1.319181 -2.443998 -12.102341 1.880790849211783e-38 1700951363
-1.334392 -2.343797 -12.241880 1.880790849211783e-38 1700951363
-1.246756 -3.189441 -11.437903 1.880790849211783e-38 1700951363
-1.232153 -3.049809 -11.303927 1.880790849211783e-38 1700951363
-1.241490 -2.955820 -11.389585 1.880790849211783e-38 1700951363
-1.256822 -2.854812 -11.530249 1.880790849211783e-38 1700951363
-1.271442 -2.758500 -11.664371 1.880790849211783e-38 1700951363
-1.279712 -2.704019 -11.740240 1.880790849211783e-38 1700951363
-1.292886 -2.617227 -11.861107 1.880790849211783e-38 1700951363
-1.303163 -2.549529 -11.955381 1.880790849211783e-38 1700951363
-1.282324 -3.192127 -11.443721 1.880790849211783e-38 1700951363
-1.267379 -3.052561 -11.310355 1.880790849211783e-38 1700951363
-1.280760 -2.967236 -11.429765 1.880790849211783e-38 1700951363
-1.296639 -2.865974 -11.571476 1.880790849211783e-38 1700951363
-1.311782 -2.769412 -11.706611 1.880790849211783e-38 1700951363
-1.320348 -2.714786 -11.783057 1.880790849211783e-38 1700951363
-1.333996 -2.627756 -11.904855 1.880790849211783e-38 1700951363
-1.344641 -2.559867 -11.999858 1.880790849211783e-38 1700951363
-1.317958 -3.194858 -11.449587 1.880790849211783e-38 1700951363
-1.306488 -3.064294 -11.349939 1.880790849211783e-38 1700951363
-1.320335 -2.978762 -11.470232 1.880790849211783e-38 1700951363
-1.336769 -2.877245 -11.613004 1.880790849211783e-38 1700951363
-1.352443 -2.780431 -11.749163 1.880790849211783e-38 1700951363
-1.361310 -2.725658 -11.826195 1.880790849211783e-38 1700951363
-1.353659 -3.197634 -11.455504 1.880790849211783e-38 1700951363
-1.345895 -3.076137 -11.389799 1.880790849211783e-38 1700951363
-1.360215 -2.990397 -11.510984 1.880790849211783e-38 1700951363
-1.377213 -2.888625 -11.654833 1.880790849211783e-38 1700951363
-1.385605 -3.088093 -11.429941 1.880790849211783e-38 1700951363
-1.400405 -3.002143 -11.552030 1.880790849211783e-38 1700951363
1.393091 -3.381992 -11.395821 1.880790849211783e-38 1700951363
1.402025 -3.316292 -11.468904 1.880790849211783e-38 1700951363
1.413787 -3.229791 -11.565117 1.880790849211783e-38 1700951363
1.468072 -2.490303 -12.317503 1.880790849211783e-38 1700951363
1.482138 -2.383602 -12.435516 1.880790849211783e-38 1700951363
1.355696 -3.374478 -11.374641 1.880790849211783e-38 1700951363
1.361186 -3.301151 -11.420696 1.880790849211783e-38 1700951363
1.372552 -3.214922 -11.516067 1.880790849211783e-38 1700951363
1.383140 -3.134604 -11.604898 1.880790849211783e-38 1700951363
1.395371 -3.041817 -11.707521 1.880790849211783e-38 1700951363
1.409833 -2.932108 -11.828864 1.880790849211783e-38 1700951363
1.493077 -2.300618 -12.527298 1.880790849211783e-38 1700951363
1.505614 -2.205512 -12.632489 1.880790849211783e-38 1700951363
1.423570 -2.827899 -11.944118 1.880790849211783e-38 1700951363
1.431318 -2.769124 -12.009126 1.880790849211783e-38 1700951363
1.517195 -2.117655 -12.729658 1.880790849211783e-38 1700951363
1.529846 -2.021688 -12.835800 1.880790849211783e-38 1700951363
1.443627 -2.675745 -12.112404 1.880790849211783e-38 1700951363
1.453200 -2.603126 -12.192719 1.880790849211783e-38 1700951363
1.423919 -2.478120 -12.261594 1.880790849211783e-38 1700951363
1.437494 -2.371830 -12.378489 1.880790849211783e-38 1700951363
1.321246 -3.374117 -11.377461 1.880790849211783e-38 1700951363
1.320717 -3.286171 -11.372908 1.880790849211783e-38 1700951363
1.331695 -3.200212 -11.467443 1.880790849211783e-38 1700951363
1.341920 -3.120152 -11.555492 1.880790849211783e-38 1700951363
1.353732 -3.027670 -11.657205 1.880790849211783e-38 1700951363
1.367697 -2.918329 -11.777456 1.880790849211783e-38 1700951363
1.448050 -2.289172 -12.469396 1.880790849211783e-38 1700951363
1.460149 -2.194448 -12.573576 1.880790849211783e-38 1700951363
1.380960 -2.814482 -11.891668 1.880790849211783e-38 1700951363
1.388440 -2.755913 -11.956077 1.880790849211783e-38 1700951363
1.471323 -2.106949 -12.669802 1.880790849211783e-38 1700951363
1.483529 -2.011384 -12.774906 1.880790849211783e-38 1700951363
1.400323 -2.662871 -12.058407 1.880790849211783e-38 1700951363
1.409563 -2.590519 -12.137978 1.880790849211783e-38 1700951363
1.380189 -2.466073 -12.206203 1.880790849211783e-38 1700951363
1.393282 -2.360190 -12.322000 1.880790849211783e-38 1700951363
1.286804 -3.373799 -11.380322 1.880790849211783e-38 1700951363
1.280608 -3.271348 -11.325521 1.880790849211783e-38 1700951363
1.291204 -3.185657 -11.419235 1.880790849211783e-38 1700951363
1.301073 -3.105854 -11.506514 1.880790849211783e-38 1700951363
1.312472 -3.013673 -11.607326 1.880790849211783e-38 1700951363
1.325948 -2.904700 -11.726503 1.880790849211783e-38 1700951363
1.403464 -2.277856 -12.412044 1.880790849211783e-38 1700951363
1.415131 -2.183508 -12.515224 1.880790849211783e-38 1700951363
1.338745 -2.801210 -11.839683 1.880790849211783e-38 1700951363
1.345962 -2.742848 -11.903508 1.880790849211783e-38 1700951363
1.425907 -2.096368 -12.610530 1.880790849211783e-38 1700951363
1.437676 -2.001198 -12.714606 1.880790849211783e-38 1700951363
1.357427 -2.650139 -12.004899 1.880790849211783e-38 1700951363
1.366341 -2.578052 -12.083738 1.880790849211783e-38 1700951363
1.400713 -1.920673 -12.731530 1.880790849211783e-38 1700951363
1.336880 -2.454160 -12.151327 1.880790849211783e-38 1700951363
1.349500 -2.348681 -12.266042 1.880790849211783e-38 1700951363
1.252373 -3.373524 -11.383224 1.880790849211783e-38 1700951363
1.240856 -3.256680 -11.278535 1.880790849211783e-38 1700951363
1.251077 -3.171257 -11.371440 1.880790849211783e-38 1700951363
1.260595 -3.091707 -11.457955 1.880790849211783e-38 1700951363
1.271589 -2.999826 -11.557879 1.880790849211783e-38 1700951363
1.284585 -2.891217 -11.676002 1.880790849211783e-38 1700951363
1.359314 -2.266668 -12.355237 1.880790849211783e-38 1700951363
1.370558 -2.172696 -12.457438 1.880790849211783e-38 1700951363
1.296925 -2.788083 -11.788166 1.880790849211783e-38 1700951363
1.303884 -2.729926 -11.851416 1.880790849211783e-38 1700951363
1.380942 -2.085907 -12.551826 1.880790849211783e-38 1700951363
1.392282 -1.991131 -12.654902 1.880790849211783e-38 1700951363
1.314937 -2.637547 -11.951883 1.880790849211783e-38 1700951363
1.323531 -2.565723 -12.029996 1.880790849211783e-38 1700951363
1.355459 -1.911016 -12.671661 1.880790849211783e-38 1700951363
1.293984 -2.442381 -12.096959 1.880790849211783e-38 1700951363
1.306141 -2.337302 -12.210608 1.880790849211783e-38 1700951363
1.217952 -3.373291 -11.386163 1.880790849211783e-38 1700951363
1.205989 -3.254400 -11.274329 1.880790849211783e-38 1700951363
1.211308 -3.157007 -11.324049 1.880790849211783e-38 1700951363
1.220482 -3.077709 -11.409814 1.880790849211783e-38 1700951363
1.231077 -2.986127 -11.508865 1.880790849211783e-38 1700951363
1.243601 -2.877880 -11.625942 1.880790849211783e-38 1700951363
1.315592 -2.255606 -12.298965 1.880790849211783e-38 1700951363
1.326421 -2.162005 -12.400201 1.880790849211783e-38 1700951363
1.255491 -2.775098 -11.737105 1.880790849211783e-38 1700951363
1.262196 -2.717144 -11.799785 1.880790849211783e-38 1700951363
1.336422 -2.075567 -12.493689 1.880790849211783e-38 1700951363
1.347342 -1.981179 -12.595776 1.880790849211783e-38 1700951363
1.272846 -2.625094 -11.899343 1.880790849211783e-38 1700951363
1.281125 -2.553530 -11.976744 1.880790849211783e-38 1700951363
1.310659 -1.901471 -12.612378 1.880790849211783e-38 1700951363
1.251500 -2.430732 -12.043094 1.880790849211783e-38 1700951363
1.263201 -2.326051 -12.155692 1.880790849211783e-38 1700951363
1.183542 -3.373102 -11.389145 1.880790849211783e-38 1700951363
1.171918 -3.254219 -11.277287 1.880790849211783e-38 1700951363
1.171895 -3.142909 -11.277063 1.880790849211783e-38 1700951363
1.180731 -3.063861 -11.362089 1.880790849211783e-38 1700951363
1.190934 -2.972574 -11.460278 1.880790849211783e-38 1700951363
1.202994 -2.864687 -11.576326 1.880790849211783e-38 1700951363
1.272297 -2.244670 -12.243227 1.880790849211783e-38 1700951363
1.282718 -2.151437 -12.343511 1.880790849211783e-38 1700951363
1.214443 -2.762255 -11.686502 1.880790849211783e-38 1700951363
1.220899 -2.704502 -11.748623 1.880790849211783e-38 1700951363
1.292341 -2.065344 -12.436111 1.880790849211783e-38 1700951363
1.302849 -1.971343 -12.537224 1.880790849211783e-38 1700951363
1.231151 -2.612778 -11.847283 1.880790849211783e-38 1700951363
1.239121 -2.541472 -11.923982 1.880790849211783e-38 1700951363
1.266299 -1.892035 -12.553667 1.880790849211783e-38 1700951363
1.274015 -1.820527 -12.630161 1.880790849211783e-38 1700951363
1.209413 -2.419212 -11.989717 1.880790849211783e-38 1700951363
1.220666 -2.314924 -12.101281 1.880790849211783e-38 1700951363
1.149137 -3.372955 -11.392166 1.880790849211783e-38 1700951363
1.137851 -3.254079 -11.280282 1.880790849211783e-38 1700951363
1.132826 -3.128955 -11.230466 1.880790849211783e-38 1700951363
1.141329 -3.050157 -11.314761 1.880790849211783e-38 1700951363
1.151148 -2.959165 -11.412102 1.880790849211783e-38 1700951363
1.162751 -2.851633 -11.527135 1.880790849211783e-38 1700951363
1.229414 -2.233855 -12.188004 1.880790849211783e-38 1700951363
1.239435 -2.140987 -12.287348 1.880790849211783e-38 1700951363
1.173767 -2.749549 -11.636338 1.880790849211783e-38 1700951363
1.179977 -2.691996 -11.697906 1.880790849211783e-38 1700951363
1.248688 -2.055238 -12.379080 1.880790849211783e-38 1700951363
1.258790 -1.961618 -12.479231 1.880790849211783e-38 1700951363
1.189840 -2.600595 -11.795683 1.880790849211783e-38 1700951363
1.197507 -2.529545 -11.871688 1.880790849211783e-38 1700951363
1.222375 -1.882706 -12.495517 1.880790849211783e-38 1700951363
1.229786 -1.811497 -12.571281 1.880790849211783e-38 1700951363
1.167721 -2.407818 -11.936825 1.880790849211783e-38 1700951363
1.178534 -2.303920 -12.047366 1.880790849211783e-38 1700951363
1.114739 -3.372850 -11.395226 1.880790849211783e-38 1700951363
1.103791 -3.253978 -11.283315 1.880790849211783e-38 1700951363
1.094101 -3.115148 -11.184257 1.880790849211783e-38 1700951363
1.102276 -3.036596 -11.267833 1.880790849211783e-38 1700951363
1.111717 -2.945895 -11.364333 1.880790849211783e-38 1700951363
1.122872 -2.838718 -11.478367 1.880790849211783e-38 1700951363
1.131111 -3.550631 -11.562594 1.880790849211783e-38 1700951363
1.186940 -2.223161 -12.133290 1.880790849211783e-38 1700951363
1.196568 -2.130654 -12.231711 1.880790849211783e-38 1700951363
1.133461 -2.736979 -11.586612 1.880790849211783e-38 1700951363
1.139431 -2.679625 -11.647635 1.880790849211783e-38 1700951363
1.205457 -2.045245 -12.322585 1.880790849211783e-38 1700951363
1.215162 -1.952003 -12.421786 1.880790849211783e-38 1700951363
1.148910 -2.588544 -11.744540 1.880790849211783e-38 1700951363
1.156279 -2.517748 -11.819863 1.880790849211783e-38 1700951363
1.178883 -1.873485 -12.437926 1.880790849211783e-38 1700951363
1.185996 -1.802570 -12.512969 1.880790849211783e-38 1700951363
1.192064 -1.742068 -12.576995 1.880790849211783e-38 1700951363
1.126420 -2.396549 -11.884412 1.880790849211783e-38 1700951363
1.136802 -2.293038 -11.993949 1.880790849211783e-38 1700951363
1.080348 -3.372787 -11.398325 1.880790849211783e-38 1700951363
1.069739 -3.253919 -11.286387 1.880790849211783e-38 1700951363
1.056282 -3.103146 -11.144405 1.880790849211783e-38 1700951363
1.063570 -3.023179 -11.221303 1.880790849211783e-38 1700951363
1.072638 -2.932767 -11.316975 1.880790849211783e-38 1700951363
1.083353 -2.825941 -11.430021 1.880790849211783e-38 1700951363
1.096216 -3.550564 -11.565736 1.880790849211783e-38 1700951363
1.144872 -2.212586 -12.079083 1.880790849211783e-38 1700951363
1.154114 -2.120438 -12.176598 1.880790849211783e-38 1700951363
1.093523 -2.724544 -11.537322 1.880790849211783e-38 1700951363
1.099255 -2.667386 -11.597806 1.880790849211783e-38 1700951363
1.162647 -2.035366 -12.266623 1.880790849211783e-38 1700951363
1.171961 -1.942499 -12.364895 1.880790849211783e-38 1700951363
1.108359 -2.576624 -11.693853 1.880790849211783e-38 1700951363
1.115434 -2.506080 -11.768502 1.880790849211783e-38 1700951363
1.135810 -1.864368 -12.380877 1.880790849211783e-38 1700951363
1.142630 -1.793746 -12.455212 1.880790849211783e-38 1700951363
1.148448 -1.733495 -12.518627 1.880790849211783e-38 1700951363
1.085499 -2.385402 -11.832462 1.880790849211783e-38 1700951363
1.095458 -2.282275 -11.941010 1.880790849211783e-38 1700951363
1.045960 -3.372767 -11.401463 1.880790849211783e-38 1700951363
1.035688 -3.253901 -11.289497 1.880790849211783e-38 1700951363
1.022659 -3.103128 -11.147476 1.880790849211783e-38 1700951363
1.025198 -3.009898 -11.175152 1.880790849211783e-38 1700951363
1.033901 -2.919775 -11.270011 1.880790849211783e-38 1700951363
1.044182 -2.813298 -11.382084 1.880790849211783e-38 1700951363
1.061322 -3.550543 -11.568919 1.880790849211783e-38 1700951363
1.103197 -2.202128 -12.025370 1.880790849211783e-38 1700951363
1.112060 -2.110334 -12.121984 1.880790849211783e-38 1700951363
1.053940 -2.712241 -11.488451 1.880790849211783e-38 1700951363
1.059440 -2.655278 -11.548407 1.880790849211783e-38 1700951363
1.120242 -2.025596 -12.211179 1.880790849211783e-38 1700951363
1.129174 -1.933101 -12.308533 1.880790849211783e-38 1700951363
1.068174 -2.564831 -11.643604 1.880790849211783e-38 1700951363
1.074962 -2.494538 -11.717594 1.880790849211783e-38 1700951363
1.093153 -1.855353 -12.324365 1.880790849211783e-38 1700951363
1.099685 -1.785020 -12.397999 1.880790849211783e-38 1700951363
1.105256 -1.725021 -12.460814 1.880790849211783e-38 1700951363
1.111094 -1.662153 -12.526634 1.880790849211783e-38 1700951363
1.044956 -2.374377 -11.780977 1.880790849211783e-38 1700951363
1.054497 -2.271630 -11.888548 1.880790849211783e-38 1700951363
1.011575 -3.372790 -11.404643 1.880790849211783e-38 1700951363
1.001641 -3.253922 -11.292644 1.880790849211783e-38 1700951363
0.989041 -3.103149 -11.150582 1.880790849211783e-38 1700951363
0.987160 -2.996755 -11.129383 1.880790849211783e-38 1700951363
0.995503 -2.906919 -11.223438 1.880790849211783e-38 1700951363
1.005358 -2.800787 -11.334552 1.880790849211783e-38 1700951363
1.026433 -3.550567 -11.572148 1.880790849211783e-38 1700951363
1.061912 -2.191784 -11.972142 1.880790849211783e-38 1700951363
1.070403 -2.100342 -12.067875 1.880790849211783e-38 1700951363
1.014711 -2.700067 -11.440000 1.880790849211783e-38 1700951363
1.019983 -2.643298 -11.499432 1.880790849211783e-38 1700951363
1.078241 -2.015935 -12.156244 1.880790849211783e-38 1700951363
1.086797 -1.923808 -12.252696 1.880790849211783e-38 1700951363
1.028353 -2.553164 -11.593798 1.880790849211783e-38 1700951363
1.034858 -2.483119 -11.667130 1.880790849211783e-38 1700951363
1.050905 -1.846439 -12.268382 1.880790849211783e-38 1700951363
1.057153 -1.776394 -12.341326 1.880790849211783e-38 1700951363
1.062484 -1.716642 -12.403551 1.880790849211783e-38 1700951363
1.068068 -1.654037 -12.468749 1.880790849211783e-38 1700951363
1.004783 -2.363471 -11.729948 1.880790849211783e-38 1700951363
1.013915 -2.261100 -11.836553 1.880790849211783e-38 1700951363
0.977193 -3.372856 -11.407864 1.880790849211783e-38 1700951363
0.967597 -3.253985 -11.295831 1.880790849211783e-38 1700951363
0.955424 -3.103207 -11.153726 1.880790849211783e-38 1700951363
0.949451 -2.983748 -11.083991 1.880790849211783e-38 1700951363
0.957439 -2.894195 -11.177254 1.880790849211783e-38 1700951363
0.966876 -2.788407 -11.287419 1.880790849211783e-38 1700951363
0.991546 -3.550637 -11.575419 1.880790849211783e-38 1700951363
1.021011 -2.181554 -11.919395 1.880790849211783e-38 1700951363
1.029137 -2.090461 -12.014258 1.880790849211783e-38 1700951363
0.975831 -2.688022 -11.391960 1.880790849211783e-38 1700951363
0.980878 -2.631445 -11.450879 1.880790849211783e-38 1700951363
1.036637 -2.006382 -12.101817 1.880790849211783e-38 1700951363
1.044823 -1.914619 -12.197380 1.880790849211783e-38 1700951363
0.988891 -2.541622 -11.544420 1.880790849211783e-38 1700951363
0.995117 -2.471822 -11.617107 1.880790849211783e-38 1700951363
1.009062 -1.837626 -12.212921 1.880790849211783e-38 1700951363
1.015033 -1.767865 -12.285188 1.880790849211783e-38 1700951363
1.020126 -1.708358 -12.346831 1.880790849211783e-38 1700951363
1.025463 -1.646014 -12.411416 1.880790849211783e-38 1700951363
0.964979 -2.352682 -11.679367 1.880790849211783e-38 1700951363
0.973709 -2.250686 -11.785028 1.880790849211783e-38 1700951363
0.942816 -3.372963 -11.411123 1.880790849211783e-38 1700951363
0.933556 -3.254087 -11.299054 1.880790849211783e-38 1700951363
0.921812 -3.103305 -11.156906 1.880790849211783e-38 1700951363
0.912068 -2.970876 -11.038972 1.880790849211783e-38 1700951363
0.919708 -2.881604 -11.131450 1.880790849211783e-38 1700951363
0.928734 -2.776157 -11.240684 1.880790849211783e-38 1700951363
0.956664 -3.550752 -11.578732 1.880790849211783e-38 1700951363
0.980492 -2.171435 -11.867124 1.880790849211783e-38 1700951363
0.988259 -2.080688 -11.961130 1.880790849211783e-38 1700951363
0.937297 -2.676104 -11.344331 1.880790849211783e-38 1700951363
0.942123 -2.619718 -11.402740 1.880790849211783e-38 1700951363
0.995427 -1.996934 -12.047890 1.880790849211783e-38 1700951363
1.003250 -1.905533 -12.142574 1.880790849211783e-38 1700951363
0.949785 -2.530203 -11.495470 1.880790849211783e-38 1700951363
0.955738 -2.460648 -11.567524 1.880790849211783e-38 1700951363
0.989888 -1.557299 -12.437860 1.880790849211783e-38 1700951363
0.967612 -1.828910 -12.157968 1.880790849211783e-38 1700951363
0.973311 -1.759430 -12.229567 1.880790849211783e-38 1700951363
0.978171 -1.700167 -12.290635 1.880790849211783e-38 1700951363
0.983263 -1.638080 -12.354616 1.880790849211783e-38 1700951363
0.925532 -2.342009 -11.629226 1.880790849211783e-38 1700951363
0.933866 -2.240383 -11.733950 1.880790849211783e-38 1700951363
0.908436 -3.373113 -11.414422 1.880790849211783e-38 1700951363
0.899514 -3.254231 -11.302318 1.880790849211783e-38 1700951363
0.888197 -3.103440 -11.160122 1.880790849211783e-38 1700951363
0.878071 -2.968510 -11.032883 1.880790849211783e-38 1700951363
0.882300 -2.869142 -11.086020 1.880790849211783e-38 1700951363
0.890920 -2.764033 -11.194332 1.880790849211783e-38 1700951363
0.921780 -3.550913 -11.582088 1.880790849211783e-38 1700951363
0.940342 -2.161427 -11.815312 1.880790849211783e-38 1700951363
0.947756 -2.071022 -11.908474 1.880790849211783e-38 1700951363
0.899099 -2.664310 -11.297096 1.880790849211783e-38 1700951363
0.903707 -2.608113 -11.355006 1.880790849211783e-38 1700951363
0.954598 -1.987590 -11.994450 1.880790849211783e-38 1700951363
0.962065 -1.896547 -12.088268 1.880790849211783e-38 1700951363
0.911024 -2.518904 -11.446936 1.880790849211783e-38 1700951363
0.916708 -2.449591 -11.518363 1.880790849211783e-38 1700951363
0.947780 -1.549791 -12.380816 1.880790849211783e-38 1700951363
0.926552 -1.820291 -12.103519 1.880790849211783e-38 1700951363
0.931983 -1.751090 -12.174459 1.880790849211783e-38 1700951363
0.936615 -1.692068 -12.234964 1.880790849211783e-38 1700951363
0.941467 -1.630236 -12.298349 1.880790849211783e-38 1700951363
0.886439 -2.331449 -11.579516 1.880790849211783e-38 1700951363
0.894385 -2.230191 -11.683319 1.880790849211783e-38 1700951363
0.874056 -3.373307 -11.417768 1.880790849211783e-38 1700951363
0.865471 -3.254416 -11.305621 1.880790849211783e-38 1700951363
0.854582 -3.103613 -11.163373 1.880790849211783e-38 1700951363
0.844838 -2.968674 -11.036092 1.880790849211783e-38 1700951363
0.845211 -2.856806 -11.040958 1.880790849211783e-38 1700951363
0.853433 -2.752035 -11.148363 1.880790849211783e-38 1700951363
0.886896 -3.551119 -11.585489 1.880790849211783e-38 1700951363
0.900558 -2.151526 -11.763961 1.880790849211783e-38 1700951363
0.907626 -2.061461 -11.856290 1.880790849211783e-38 1700951363
0.861233 -2.652639 -11.250257 1.880790849211783e-38 1700951363
0.865628 -2.596630 -11.307673 1.880790849211783e-38 1700951363
0.914149 -1.978348 -11.941489 1.880790849211783e-38 1700951363
0.921265 -1.887660 -12.034457 1.880790849211783e-38 1700951363
0.872605 -2.507724 -11.398813 1.880790849211783e-38 1700951363
0.878026 -2.438651 -11.469622 1.880790849211783e-38 1700951363
0.906078 -1.542369 -12.324308 1.880790849211783e-38 1700951363
0.910296 -1.486104 -12.381687 1.880790849211783e-38 1700951363
0.885879 -1.811767 -12.049569 1.880790849211783e-38 1700951363
0.891047 -1.742842 -12.119863 1.880790849211783e-38 1700951363
0.895454 -1.684059 -12.179810 1.880790849211783e-38 1700951363
0.900071 -1.622480 -12.242608 1.880790849211783e-38 1700951363
0.847698 -2.321002 -11.530242 1.880790849211783e-38 1700951363
0.855263 -2.220109 -11.633133 1.880790849211783e-38 1700951363
0.839678 -3.373542 -11.421145 1.880790849211783e-38 1700951363
0.831430 -3.254640 -11.308959 1.880790849211783e-38 1700951363
0.820968 -3.103826 -11.166663 1.880790849211783e-38 1700951363
0.811607 -2.968875 -11.039334 1.880790849211783e-38 1700951363
0.808441 -2.844599 -10.996268 1.880790849211783e-38 1700951363
0.816271 -2.740160 -11.102774 1.880790849211783e-38 1700951363
0.852013 -3.551370 -11.588930 1.880790849211783e-38 1700951363
0.861139 -2.141732 -11.713062 1.880790849211783e-38 1700951363
0.867867 -2.052004 -11.804571 1.880790849211783e-38 1700951363
0.823699 -2.641089 -11.203810 1.880790849211783e-38 1700951363
0.827885 -2.585267 -11.260739 1.880790849211783e-38 1700951363
0.874075 -1.969208 -11.889007 1.880790849211783e-38 1700951363
0.880848 -1.878871 -11.981138 1.880790849211783e-38 1700951363
0.834528 -2.496662 -11.351099 1.880790849211783e-38 1700951363
0.839689 -2.427827 -11.421298 1.880790849211783e-38 1700951363
0.864769 -1.535029 -12.268322 1.880790849211783e-38 1700951363
0.868776 -1.478999 -12.325169 1.880790849211783e-38 1700951363
0.845581 -1.803336 -11.996106 1.880790849211783e-38 1700951363
0.850490 -1.734685 -12.065759 1.880790849211783e-38 1700951363
0.854677 -1.676138 -12.125157 1.880790849211783e-38 1700951363
0.859063 -1.614810 -12.187377 1.880790849211783e-38 1700951363
0.809299 -2.310665 -11.481382 1.880790849211783e-38 1700951363
0.816489 -2.210134 -11.583379 1.880790849211783e-38 1700951363
0.805294 -3.373821 -11.424569 1.880790849211783e-38 1700951363
0.797383 -3.254906 -11.312339 1.880790849211783e-38 1700951363
0.787350 -3.104076 -11.169991 1.880790849211783e-38 1700951363
0.778371 -2.969112 -11.042612 1.880790849211783e-38 1700951363
0.771979 -2.832514 -10.951930 1.880790849211783e-38 1700951363
0.779424 -2.728407 -11.057552 1.880790849211783e-38 1700951363
0.817126 -3.551668 -11.592420 1.880790849211783e-38 1700951363
0.822073 -2.132043 -11.662606 1.880790849211783e-38 1700951363
0.828466 -2.042649 -11.753305 1.880790849211783e-38 1700951363
0.786486 -2.629659 -11.157742 1.880790849211783e-38 1700951363
0.790465 -2.574021 -11.214190 1.880790849211783e-38 1700951363
0.834365 -1.960166 -11.836989 1.880790849211783e-38 1700951363
0.840801 -1.870178 -11.928291 1.880790849211783e-38 1700951363
0.796780 -2.485715 -11.303783 1.880790849211783e-38 1700951363
0.801686 -2.417116 -11.373382 1.880790849211783e-38 1700951363
0.823850 -1.527771 -12.212852 1.880790849211783e-38 1700951363
0.827649 -1.471974 -12.269174 1.880790849211783e-38 1700951363
0.805654 -1.794998 -11.943120 1.880790849211783e-38 1700951363
0.810310 -1.726618 -12.012143 1.880790849211783e-38 1700951363
0.814281 -1.668305 -12.071002 1.880790849211783e-38 1700951363
0.818440 -1.607225 -12.132655 1.880790849211783e-38 1700951363
0.771238 -2.300437 -11.432938 1.880790849211783e-38 1700951363
0.778059 -2.200264 -11.534052 1.880790849211783e-38 1700951363
0.770907 -3.374141 -11.428032 1.880790849211783e-38 1700951363
0.763334 -3.255212 -11.315758 1.880790849211783e-38 1700951363
0.753727 -3.104364 -11.173350 1.880790849211783e-38 1700951363
0.745131 -2.969385 -11.045924 1.880790849211783e-38 1700951363
0.735824 -2.820552 -10.907947 1.880790849211783e-38 1700951363
0.742890 -2.716774 -11.012698 1.880790849211783e-38 1700951363
0.794339 -3.742074 -11.775376 1.880790849211783e-38 1700951363
0.782235 -3.552010 -11.595948 1.880790849211783e-38 1700951363
0.783357 -2.122458 -11.612588 1.880790849211783e-38 1700951363
0.789422 -2.033394 -11.702488 1.880790849211783e-38 1700951363
0.749592 -2.618345 -11.112050 1.880790849211783e-38 1700951363
0.753368 -2.562892 -11.168026 1.880790849211783e-38 1700951363
0.795017 -1.951222 -11.785429 1.880790849211783e-38 1700951363
0.801121 -1.861579 -11.875916 1.880790849211783e-38 1700951363
0.759361 -2.474882 -11.256858 1.880790849211783e-38 1700951363
0.764015 -2.406517 -11.325864 1.880790849211783e-38 1700951363
0.783314 -1.520593 -12.157893 1.880790849211783e-38 1700951363
0.786910 -1.465026 -12.213696 1.880790849211783e-38 1700951363
0.791122 -1.399926 -12.279072 1.880790849211783e-38 1700951363
