# .PCD v0.7 - Point Cloud Data file format
VERSION 0.7
FIELDS x y z rgb label
SIZE 4 4 4 4 4
TYPE F F F F U
COUNT 1 1 1 1 1
WIDTH 1519
HEIGHT 1
VIEWPOINT 0 0 0 1 0 0 0
POINTS 1519
DATA ascii
-0.174929 -2.518653 -10.702267
-0.288255 -2.343780 -10.725903
-0.213924 -1.957647 -11.263201
-0.239833 -1.874857 -11.337284
-0.162725 -2.332174 -10.676838
-0.108195 -2.327680 -10.811384
-0.179411 -1.476604 -11.769612
-0.251270 -1.385677 -11.771948
-0.255746 -1.320182 -11.942046
-0.217336 -1.278254 -11.904839
-0.223032 -1.738632 -11.607983
-0.294497 -1.631201 -11.551431
-0.259310 -1.194130 -12.218575
-0.223423 -1.247182 -12.283975
-0.229630 -1.601042 -11.552392
-0.281964 -1.558984 -11.722407
-0.194898 -2.146235 -10.944406
-0.261340 -2.076109 -11.130589
-0.267962 -3.324686 -11.466767
-0.401771 -3.201729 -11.336874
-0.300058 -3.123355 -11.243383
-0.260483 -3.019667 -11.206878
-0.312943 -4.193384 -12.192310
-0.290494 -3.938430 -12.099881
-0.194095 -2.810681 -11.013006
-0.309818 -2.766409 -10.860082
-0.216478 -3.784689 -11.955330
-0.167072 -3.583259 -11.663002
-0.261308 -2.054174 -11.135173
-0.126045 -1.849303 -11.369276
-0.238055 -2.484039 -10.740135
-0.094604 -2.438761 -10.660905
-0.246864 -1.888643 -11.286154
-0.325111 -1.868894 -11.387857
-0.337965 -2.310502 -10.673617
-0.305969 -2.236845 -10.790143
-0.257346 -1.677920 -11.777975
-0.228477 -1.393554 -11.870303
-0.210264 -1.325665 -11.944911
-0.453038 -1.333444 -11.944859
-0.250535 -1.569382 -11.433294
-0.313291 -1.650265 -11.687667
-0.371432 -1.238839 -11.989271
-0.260399 -1.679345 -11.663099
-0.172464 -1.542361 -11.706340
-0.276155 -2.129944 -10.980670
-0.229240 -2.044410 -11.171186
-0.395817 -3.382778 -11.590783
-0.288549 -3.313574 -11.484033
-0.242724 -3.155887 -11.174227
-0.197876 -2.981041 -11.220821
-0.332057 -3.913059 -12.005662
-0.349637 -2.847968 -11.040230
-0.328832 -2.759706 -10.817126
-0.199764 -3.757902 -11.919188
-0.286903 -3.560761 -11.747405
-0.359176 -2.059311 -11.138109
-0.189961 -2.063734 -11.195364
-0.252895 -2.548169 -10.739492
-0.378780 -2.504990 -10.574479
-0.159672 -1.765955 -11.322653
-0.460343 -1.741886 -11.404446
-0.178294 -2.240371 -10.878216
-0.227489 -2.216190 -10.757169
-0.328681 -1.438420 -11.913430
-0.290923 -1.356085 -11.936525
-0.287669 -1.347348 -11.967470
-0.312259 -1.301011 -12.124739
-0.430375 -1.683295 -11.593541
-0.411515 -1.633931 -11.701983
-0.383892 -1.175689 -12.146966
-0.368302 -1.577809 -11.772349
-0.371596 -1.583043 -11.833092
-0.236391 -2.221440 -10.876335
-0.292541 -2.081151 -11.060338
-0.322298 -3.404606 -11.582051
-0.326601 -3.302513 -11.488197
-0.339174 -3.121996 -11.278742
-0.401933 -3.100513 -11.203100
-0.358809 -3.954054 -12.044862
-0.275176 -2.932459 -10.944075
-0.401213 -2.725277 -10.817338
-0.302906 -3.766579 -11.986771
-0.279967 -3.507531 -11.789541
-0.196428 -2.033847 -11.117403
-0.345729 -1.900983 -11.309915
-0.213062 -2.587631 -10.745393
-0.171983 -2.507951 -10.716518
-0.300765 -1.859927 -11.468716
-0.273987 -1.789604 -11.447614
-0.351384 -2.387231 -10.664388
-0.242248 -2.255355 -10.791159
-0.451327 -1.461980 -11.878172
-0.266150 -1.408017 -11.975136
-0.424179 -1.300422 -12.128089
-0.401062 -1.280764 -12.168297
-0.323683 -1.774580 -11.630223
-0.391991 -1.722560 -11.590015
-0.422326 -1.271325 -12.174666
-0.358571 -1.680860 -11.810336
-0.405764 -1.521929 -11.784569
-0.263136 -2.280752 -10.863046
-0.341407 -2.181928 -11.189735
-0.341860 -3.450713 -11.575877
-0.438516 -3.250317 -11.577623
-0.344532 -3.140123 -11.337520
-0.297096 -2.991813 -11.192764
-0.268016 -4.040547 -12.079320
-0.402589 -2.899669 -11.092363
-0.390320 -2.664240 -10.767450
-0.354840 -3.794578 -11.966773
-0.336091 -3.620833 -11.616708
-0.382888 -2.129774 -11.269686
-0.321687 -2.012375 -11.308255
-0.350781 -2.525216 -10.783114
-0.253907 -2.455560 -10.730967
-0.415328 -1.893419 -11.410271
-0.371468 -1.782493 -11.552488
-0.317396 -2.448523 -10.854712
-0.308178 -2.197409 -10.913743
-0.294323 -1.350936 -11.944847
-0.355622 -1.432030 -12.119524
-0.352587 -1.343642 -12.078249
-0.360464 -1.391240 -12.218585
-0.448948 -1.619764 -11.577983
-0.366478 -1.730192 -11.723529
-0.388912 -1.287605 -12.225823
-0.349271 -1.681266 -11.801445
-0.300486 -1.600855 -11.965412
-0.256748 -2.145724 -10.990654
-0.229399 -2.151355 -11.058520
-0.457759 -3.362530 -11.571505
-0.374751 -3.345983 -11.399875
-0.401171 -3.034525 -11.304603
-0.361840 -3.076498 -11.150243
-0.378588 -3.998172 -12.080949
-0.410825 -2.880960 -11.059398
-0.343470 -2.725390 -10.805277
-0.381308 -3.722652 -11.978133
-0.340958 -3.746928 -11.741213
-0.417569 -2.107339 -11.301597
-0.402283 -1.878088 -11.312069
-0.378552 -2.471939 -10.602698
-0.230286 -2.451664 -10.704653
-0.291508 -2.026313 -11.418012
-0.283024 -1.870744 -11.618726
-0.380961 -2.274028 -10.787958
-0.372303 -2.353954 -10.956493
-0.460128 -1.548714 -12.041693
-0.477593 -1.312077 -12.052779
-0.545067 -1.324119 -12.175855
-0.495856 -1.349411 -12.222534
-0.482043 -1.673288 -11.764758
-0.441353 -1.676617 -11.863988
-0.399269 -1.617462 -11.835676
-0.506861 -1.529796 -11.934648
-0.453652 -2.265879 -11.110607
-0.462427 -2.010914 -11.227737
-0.441613 -3.349135 -11.498944
-0.370787 -3.250969 -11.498898
-0.428759 -3.111711 -11.238456
-0.494601 -2.974315 -11.111756
-0.381873 -3.964186 -12.145788
-0.455919 -2.762679 -11.135882
-0.402499 -2.686388 -10.808382
-0.498339 -3.693276 -11.946317
-0.513819 -3.565976 -11.778581
-0.414219 -2.077341 -11.159800
-0.362720 -1.949545 -11.398565
-0.386808 -2.497626 -10.668658
-0.374103 -2.600069 -10.829398
-0.472404 -1.935426 -11.469865
-0.380908 -1.743372 -11.532073
-0.447767 -2.485590 -10.876919
-0.421384 -2.273209 -10.978609
-0.465249 -1.456802 -12.083889
-0.543144 -1.474491 -12.159891
-0.513104 -1.310742 -12.226883
-0.532256 -1.217189 -12.354788
-0.426541 -1.731443 -11.808159
-0.346992 -1.716925 -11.794419
-0.514604 -1.615107 -11.931301
-0.571270 -1.464812 -12.029393
-0.554040 -2.229308 -11.256477
-0.467867 -2.152763 -11.241758
-0.445356 -3.347124 -11.572609
-0.483478 -3.259608 -11.387683
-0.424071 -3.176762 -11.300243
-0.485931 -3.002293 -11.193862
-0.471123 -2.914064 -11.042709
-0.584272 -2.674556 -10.807477
-0.493300 -3.721372 -11.910533
-0.485528 -3.589375 -11.772194
-0.496926 -2.120871 -11.205156
-0.426378 -1.995437 -11.393470
-0.477407 -2.532220 -10.754166
-0.390425 -2.572838 -10.844724
-0.519814 -1.835470 -11.614669
-0.387628 -1.867318 -11.606825
-0.485319 -2.448220 -10.941404
-0.373542 -2.324941 -11.010752
-0.552114 -1.495762 -12.158543
-0.505984 -1.545435 -12.148825
-0.463765 -1.242995 -12.225379
-0.599893 -1.279152 -12.344933
-0.345577 -1.857554 -11.799425
-0.445378 -1.741488 -11.893962
-0.486330 -1.538246 -11.918947
-0.484673 -1.546732 -11.955354
-0.457421 -2.193586 -11.264302
-0.349216 -2.161868 -11.360075
-0.559917 -3.505659 -11.661118
-0.520920 -3.341249 -11.438982
-0.454724 -3.173230 -11.286383
-0.583969 -2.974922 -11.191965
-0.436511 -2.887653 -11.023152
-0.499787 -2.625161 -10.917971
-0.521099 -3.716107 -12.100961
-0.483797 -3.580454 -11.687001
-0.436086 -2.058370 -11.363016
-0.485980 -2.114595 -11.473874
-0.397500 -2.659715 -10.821342
-0.392978 -2.490737 -10.902500
-0.490061 -1.930281 -11.639159
-0.493947 -1.866631 -11.750986
-0.353953 -2.412119 -10.889509
-0.368592 -2.294202 -11.089618
-0.531448 -1.578406 -12.228779
-0.533168 -1.336919 -12.110054
-0.559197 -1.477484 -12.391532
-0.526899 -1.847198 -11.896212
-0.502258 -1.787776 -11.848998
-0.528016 -1.589321 -12.031478
-0.528589 -1.682011 -12.069992
-0.450792 -2.344291 -11.155317
-0.495638 -2.159202 -11.443190
-0.473702 -3.348622 -11.609690
-0.588858 -3.389279 -11.453146
-0.431900 -3.183780 -11.284398
-0.501741 -3.000982 -11.348758
-0.507902 -2.818159 -11.054262
-0.451094 -2.629065 -10.933481
-0.593866 -3.837495 -11.924719
-0.513930 -3.522153 -11.780163
-0.547045 -2.137610 -11.418852
-0.474354 -2.008907 -11.581154
-0.493927 -2.529275 -10.788886
-0.478000 -2.576176 -10.794792
-0.545576 -1.946845 -11.617128
-0.595993 -1.823615 -11.665756
-0.448813 -2.351854 -11.041873
-0.446134 -2.365258 -11.115210
-0.610225 -1.426988 -12.136936
-0.503914 -1.430926 -12.192496
-0.523879 -1.429054 -12.406652
-0.663465 -1.679908 -11.860086
-0.514505 -1.642374 -11.954311
-0.527837 -1.683877 -12.027323
-0.644525 -1.559242 -12.022045
-0.507569 -2.284058 -11.192713
-0.654461 -2.115401 -11.419315
-0.513726 -3.400419 -11.696926
-0.482311 -3.326228 -11.402200
-0.710305 -3.181278 -11.372317
-0.520441 -2.986672 -11.116944
-0.477933 -2.812072 -11.027678
-0.519607 -2.723096 -10.960589
-0.556480 -3.823282 -11.935932
-0.646329 -3.578312 -11.767866
-0.508164 -2.017913 -11.404796
-0.521658 -2.045871 -11.579087
-0.585027 -2.605871 -10.868247
-0.484162 -2.480780 -10.936760
-0.603634 -1.894834 -11.600205
-0.482665 -1.798080 -11.729984
-0.570460 -2.361421 -11.037198
-0.456453 -2.384999 -11.129310
-0.648844 -1.526363 -12.356266
-0.540600 -1.517321 -12.272681
-0.569891 -1.461665 -12.442883
-0.633467 -1.700127 -12.031116
-0.658388 -1.695705 -11.983850
-0.679506 -1.655996 -12.051286
-0.571151 -1.579481 -12.087754
-0.546202 -2.344637 -11.387530
-0.522550 -2.276583 -11.405462
-0.536136 -3.432877 -11.653048
-0.601784 -3.321057 -11.431004
-0.645899 -3.234372 -11.323860
-0.625045 -3.024075 -11.297968
-0.584040 -2.767996 -11.102805
-0.432023 -2.620126 -10.961680
-0.590764 -3.720831 -11.945090
-0.692828 -3.535472 -11.778085
-0.645732 -2.178847 -11.574907
-0.677553 -1.962903 -11.608588
-0.605362 -2.610435 -10.892510
-0.554803 -2.516377 -10.964090
-0.552935 -1.957129 -11.634545
-0.659614 -1.797790 -11.894175
-0.635300 -2.549775 -11.097127
-0.541809 -2.434905 -11.180015
-0.708695 -1.603329 -12.201635
-0.604251 -1.562656 -12.355606
-0.632405 -1.394291 -12.455244
-0.574836 -1.831408 -11.911115
-0.569520 -1.722094 -11.946722
-0.649471 -1.658047 -12.099044
-0.744208 -1.647598 -12.224898
-0.584099 -2.337298 -11.535490
-0.562467 -2.192009 -11.511502
-0.665210 -3.329352 -11.501142
-0.636825 -3.345041 -11.478444
-0.533378 -3.091271 -11.302436
-0.568607 -2.899384 -11.248483
-0.539954 -2.912285 -11.031845
-0.626143 -2.802471 -10.991285
-0.735538 -3.815533 -12.044203
-0.639292 -3.620011 -11.772934
-0.556029 -2.164553 -11.551505
-0.591502 -1.993639 -11.639873
-0.622401 -2.516922 -11.009979
-0.735251 -2.483280 -11.061529
-0.635438 -1.888935 -11.687216
-0.566894 -1.877651 -11.969015
-0.698486 -2.419771 -11.238328
-0.687421 -2.306597 -11.275700
-0.664413 -1.515051 -12.240413
-0.695903 -1.472427 -12.373278
-0.752868 -1.866662 -12.119697
-0.745051 -1.713352 -11.988589
-0.784461 -1.655531 -12.180576
-0.712238 -1.721920 -12.201077
-0.680738 -2.282671 -11.375368
-0.589831 -2.273601 -11.601394
-0.678621 -3.472802 -11.613698
-0.640933 -3.261341 -11.533972
-0.715382 -3.145574 -11.329727
-0.608138 -3.084161 -11.248462
-0.614149 -2.879900 -10.986211
-0.532665 -2.659935 -10.936257
-0.714433 -3.615553 -11.725706
-0.690537 -2.083152 -11.613075
-0.660768 -2.015648 -11.616672
-0.652587 -2.616355 -11.029890
-0.544984 -2.515160 -10.966765
-0.759691 -1.930538 -11.943477
-0.688167 -1.770614 -11.847892
-0.606780 -2.406886 -11.119748
-0.586502 -2.371881 -11.160576
-0.749191 -1.507281 -12.395038
-0.644547 -1.487541 -12.289219
-0.685545 -1.807387 -11.968913
-0.860557 -1.721045 -12.123115
-0.650744 -1.808052 -12.203629
-0.753592 -1.703868 -12.342853
-0.778080 -2.254629 -11.525032
-0.667070 -2.313165 -11.533331
-0.641642 -3.494158 -11.600525
-0.762065 -3.234137 -11.560627
-0.665613 -3.055726 -11.343320
-0.685464 -2.993477 -11.254984
-0.666826 -2.808469 -11.154359
-0.758459 -2.692172 -11.065956
-0.709966 -3.625853 -11.796564
-0.571817 -2.008786 -11.659169
-0.721737 -2.053962 -11.783890
-0.677246 -2.544801 -10.936393
-0.716993 -2.581129 -11.127477
-0.618136 -1.968435 -11.923753
-0.768216 -1.894476 -12.075036
-0.625516 -2.365587 -11.200130
-0.680158 -2.400236 -11.307101
-0.832921 -1.512331 -12.336478
-0.687497 -1.399746 -12.389146
-0.788737 -1.869377 -12.116382
-0.727718 -1.636698 -12.112041
-0.791921 -1.682118 -12.251579
-0.825711 -1.758344 -12.373282
-0.810080 -2.320853 -11.449682
-0.620339 -2.265490 -11.556114
-0.700385 -3.470287 -11.640301
-0.686433 -3.287568 -11.552888
-0.736442 -3.166994 -11.392144
-0.675598 -3.108256 -11.237094
-0.698643 -2.925197 -11.058767
-0.701301 -2.736598 -10.958621
-0.779472 -3.590918 -11.753252
-0.663977 -2.074140 -11.745047
-0.769910 -2.148318 -11.823547
-0.692774 -2.604839 -11.051625
-0.678058 -2.576975 -11.171878
-0.714056 -1.903622 -11.889801
-0.758434 -1.915727 -12.023327
-0.774630 -2.505641 -11.161494
-0.629082 -2.437223 -11.383447
-0.906067 -1.612271 -12.389632
-0.807035 -1.513583 -12.642667
-0.722608 -1.845344 -12.022944
-0.738881 -1.720740 -12.198762
-0.785721 -1.634744 -12.268527
-0.760487 -1.532973 -12.358624
-0.762410 -2.271779 -11.453283
-0.724832 -2.254821 -11.654153
-0.807394 -3.504358 -11.634213
-0.733097 -3.234544 -11.514512
-0.699147 -3.187379 -11.383526
-0.768237 -2.997460 -11.193819
-0.796202 -2.878630 -11.118892
-0.722724 -2.702507 -11.043013
-0.859649 -3.699718 -11.736744
-0.743434 -2.090764 -11.645934
-0.813293 -2.139971 -11.792919
-0.790701 -2.560253 -11.087880
-0.786439 -2.704112 -11.230037
-0.739791 -2.038215 -11.933699
-0.790507 -1.980111 -12.082260
-0.767242 -2.433177 -11.271269
-0.743234 -2.417698 -11.325528
-0.760549 -1.578257 -12.473731
-0.783449 -1.739656 -12.128758
-0.848489 -1.668133 -12.226927
-0.860957 -1.731763 -12.398487
-0.864587 -1.710200 -12.459230
-0.877319 -2.336980 -11.573197
-0.727915 -2.154912 -11.656233
-0.719921 -3.494987 -11.631944
-0.824078 -3.248867 -11.477335
-0.886119 -3.055623 -11.351862
-0.871961 -2.984814 -11.274688
-0.737887 -2.814255 -11.142530
-0.855518 -2.702590 -11.069044
-0.822190 -3.722644 -11.830808
-0.835536 -2.140541 -11.744182
-0.806442 -2.127897 -11.948859
-0.720313 -2.678168 -11.156545
-0.823538 -2.567728 -11.307846
-0.748154 -1.995363 -11.948298
-0.804622 -1.945963 -12.110183
-0.822788 -2.581279 -11.272799
-0.786832 -2.494650 -11.480298
-0.914571 -1.563022 -12.512952
-0.958180 -1.775878 -12.324132
-0.863536 -1.688102 -12.334192
-0.792949 -1.702250 -12.491147
-0.976779 -1.669187 -12.585605
-0.902705 -2.417494 -11.616847
-0.794571 -2.208857 -11.674106
-0.893296 -3.367655 -11.612235
-0.993671 -3.362007 -11.547587
-0.816753 -3.271473 -11.359722
-0.721035 -3.004571 -11.159891
-0.882051 -2.911968 -11.152999
-0.829731 -2.798395 -11.095013
-0.918065 -3.723879 -11.716495
-0.829285 -2.092181 -11.787421
-0.967357 -2.139216 -11.956860
-0.753453 -2.575518 -11.299017
-0.732052 -2.582007 -11.233599
-1.028242 -2.033521 -12.121487
-0.866449 -1.924344 -12.187126
-0.824243 -2.589382 -11.382305
-0.916898 -2.431825 -11.495647
-0.951774 -1.611571 -12.592744
-0.861251 -1.819805 -12.253369
-0.881620 -1.734147 -12.368232
-0.968137 -1.823798 -12.365479
-0.830623 -1.681887 -12.620886
-0.874481 -2.288988 -11.680124
-0.842152 -2.269159 -11.863387
-0.891777 -3.417652 -11.688583
-0.921175 -3.316750 -11.523119
-0.883544 -3.177513 -11.340463
-0.822223 -2.959555 -11.330470
-0.909540 -2.927923 -11.109955
-0.873982 -2.681784 -11.112733
-0.903677 -2.185020 -11.865200
-0.988261 -1.993254 -11.972244
-0.792303 -2.575029 -11.255935
-0.800852 -2.600173 -11.129008
-0.892689 -2.040692 -12.045677
-0.930494 -1.917345 -12.205432
-0.912971 -2.489727 -11.409371
-0.826530 -2.436057 -11.430312
-0.957303 -1.727510 -12.370745
-0.967094 -1.835727 -12.448093
-0.984915 -1.751731 -12.638772
-0.971245 -1.664980 -12.670211
-1.057404 -2.323764 -11.610965
-0.896146 -2.179662 -11.749992
-0.935703 -3.522409 -11.586166
-0.888065 -3.333234 -11.426699
-0.864527 -3.196801 -11.488461
-0.847605 -3.036522 -11.272965
-0.880974 -2.837582 -11.120048
-0.915163 -2.712843 -11.115921
-0.869689 -2.029193 -11.836486
-0.970974 -2.086220 -11.935524
-0.833768 -2.736900 -11.341381
-0.850373 -2.692518 -11.361199
-0.986616 -1.964421 -11.942994
-0.975298 -1.857338 -12.259634
-0.891568 -2.419444 -11.451826
-0.929073 -2.419558 -11.580254
-0.998543 -1.891126 -12.333471
-1.010768 -1.690988 -12.585893
-1.050608 -1.743413 -12.596503
-1.060307 -1.706792 -12.686278
-0.926284 -2.470080 -11.681142
-1.095500 -2.381584 -11.821050
-0.936338 -3.463694 -11.622071
-1.063918 -3.310579 -11.516364
-0.951125 -3.203306 -11.428519
-0.885579 -3.056046 -11.181918
-0.916950 -2.811769 -11.082347
-0.906047 -2.660224 -11.108973
-0.893560 -2.176983 -11.973481
-1.019949 -2.220480 -12.114302
-0.858484 -2.634257 -11.321340
-0.979796 -2.639810 -11.459453
-0.984427 -1.875294 -12.116556
-1.012973 -1.948743 -12.293914
-0.910724 -2.557250 -11.534762
-0.798737 -2.475869 -11.620339
-0.918000 -1.804791 -12.313367
-1.056898 -1.776976 -12.578675
-1.036449 -1.791979 -12.562265
-1.097567 -1.726792 -12.643704
-1.034218 -2.365945 -11.732241
-1.100653 -2.256084 -11.928655
-1.004860 -3.412631 -11.680550
-0.982929 -3.338768 -11.548851
-0.892252 -3.265627 -11.447970
-0.837205 -3.105509 -11.309335
-0.903413 -2.922025 -11.080150
-0.945143 -2.741251 -11.264599
-1.053572 -2.121314 -12.104458
-0.855175 -2.038012 -12.076130
-0.927659 -2.676471 -11.461824
-1.002034 -2.551114 -11.315395
-1.052824 -1.991864 -12.144678
-1.074659 -1.875026 -12.313513
-1.010259 -2.494698 -11.507922
-0.924613 -2.502544 -11.507447
-1.041155 -1.807771 -12.426279
-1.083027 -1.757284 -12.632178
-1.148589 -1.773049 -12.672695
-1.131948 -1.756685 -12.681218
-1.076672 -2.497019 -11.879960
-1.015352 -2.301026 -11.943909
-1.105199 -3.399091 -11.670802
-0.991745 -3.374154 -11.615563
-1.047824 -3.250437 -11.406659
-0.944979 -2.998439 -11.229078
-0.959315 -2.931137 -11.092821
-0.945847 -2.776799 -11.204531
-1.133963 -2.271906 -12.087840
-1.030385 -2.151736 -12.059293
-1.001517 -2.661694 -11.369742
-1.056646 -2.566181 -11.477621
-1.105161 -1.956315 -12.201299
-1.009967 -1.869311 -12.417193
-1.046074 -2.570122 -11.705689
-1.131825 -2.552492 -11.602450
-1.132972 -1.960024 -12.475778
-1.130333 -1.812647 -12.583270
-1.165686 -1.799958 -12.653568
-1.122427 -1.760235 -12.716011
-1.099165 -2.388579 -11.852166
-1.062507 -2.349301 -12.075882
-1.039460 -3.435531 -11.656526
-1.038365 -3.389701 -11.556062
-1.108670 -3.130687 -11.490698
-0.996884 -3.049963 -11.250172
-0.966821 -2.937158 -11.229381
-1.020458 -2.737527 -11.248998
-1.138329 -2.209474 -12.162980
-1.228655 -2.114338 -12.165384
-1.061127 -2.651516 -11.585443
-1.081934 -2.627432 -11.441721
-1.143064 -2.075968 -12.406059
-1.151348 -1.963237 -12.362255
-1.044121 -2.577336 -11.618520
-0.998101 -2.457989 -11.768111
-1.049120 -1.802322 -12.611895
-1.160218 -1.801220 -12.565005
-1.195439 -1.791957 -12.764151
-1.180590 -2.414685 -11.844732
-1.174059 -2.303902 -11.898065
-1.012786 -3.279415 -11.483708
-0.991783 -3.290391 -11.516284
-1.027947 -3.052539 -11.168363
-1.107773 -2.708588 -11.179272
-1.087021 -2.729641 -11.461579
-1.134989 -2.259356 -12.092928
-1.243023 -2.059899 -12.183953
-1.117637 -2.744040 -11.455399
-1.019944 -2.706366 -11.593397
-1.228348 -1.970028 -12.339314
-1.131173 -1.895605 -12.535441
-1.071383 -2.603519 -11.636203
-1.110535 -2.448077 -11.605978
-1.206131 -1.855075 -12.621659
-1.258935 -1.793545 -12.652106
-1.200869 -1.797830 -12.934586
-1.040077 -2.377685 -11.838236
-1.278829 -2.300055 -12.031757
-1.087612 -3.316383 -11.541865
-1.131785 -3.303011 -11.421746
-1.116950 -3.026216 -11.277277
-1.171248 -2.948603 -11.377961
-1.223517 -2.858784 -11.367491
-1.035366 -2.202393 -12.162285
-1.244821 -2.103004 -12.272267
-1.206753 -2.609202 -11.476145
-1.181902 -2.689851 -11.492330
-1.064495 -1.980493 -12.393075
-1.181789 -2.037828 -12.459449
-1.202192 -2.566772 -11.656541
-1.169807 -2.501645 -11.733137
-1.242919 -1.894582 -12.716140
-1.309168 -1.739169 -12.795228
-1.369157 -1.756730 -12.874520
-1.305313 -2.493422 -11.883773
-1.114980 -2.328850 -12.152802
-1.170841 -3.306023 -11.566917
-1.091853 -3.227626 -11.455521
-1.191261 -3.107552 -11.394114
-1.114431 -2.956750 -11.292295
-1.150972 -2.817006 -11.454524
-1.166128 -2.334565 -12.227663
-1.138829 -2.156025 -12.319377
-1.052385 -2.754203 -11.617439
-1.203410 -2.594289 -11.565890
-1.206900 -2.196899 -12.406609
-1.247660 -1.962557 -12.576522
-1.187573 -2.574901 -11.810385
-1.215753 -2.576457 -11.855018
-1.347636 -2.355552 -11.989052
-1.234812 -2.299267 -12.084191
-1.193053 -2.983298 -11.510773
-1.253102 -2.997569 -11.321529
-1.186537 -2.834582 -11.256504
-1.370855 -2.931412 -11.444354
-1.308348 -2.252061 -12.244498
-1.219303 -2.206808 -12.332849
-1.149441 -2.640420 -11.620126
-1.288827 -2.736105 -11.636293
-1.290958 -1.952076 -12.417337
-1.392136 -1.948695 -12.571980
-1.121736 -2.596119 -11.711894
-1.207348 -2.571318 -11.833426
-1.297905 -2.411035 -12.165434
-1.120435 -2.404895 -12.203063
-1.158747 -3.184382 -11.486404
-1.224868 -3.057558 -11.268607
-1.180351 -2.969010 -11.400062
-1.087582 -2.831091 -11.437650
-1.252350 -2.185752 -12.279210
-1.336391 -2.180565 -12.514166
-1.147010 -2.723449 -11.705969
-1.292022 -2.719293 -11.743859
-1.253765 -2.566353 -11.733931
-1.246421 -2.555923 -11.930860
-1.294199 -2.514966 -12.066249
-1.367213 -2.369342 -12.216299
-1.221634 -3.214741 -11.453616
-1.245664 -3.012442 -11.308700
-1.136376 -2.958688 -11.465296
-1.284124 -2.923153 -11.527611
-1.325313 -2.749018 -11.682196
-1.341278 -2.608009 -11.750266
-1.226734 -2.586846 -11.953699
-1.306247 -2.424858 -11.899974
-1.208857 -3.273068 -11.452767
-1.267995 -3.139941 -11.274879
-1.356591 -2.960577 -11.415464
-1.225303 -2.923796 -11.557522
-1.327898 -2.844977 -11.790255
-1.337582 -2.759909 -11.804111
-1.275675 -2.651803 -11.893181
-1.325255 -2.577975 -12.045990
-1.268599 -3.181628 -11.389277
-1.206116 -3.107441 -11.336059
-1.326721 -3.008527 -11.383695
-1.268815 -2.937916 -11.646895
-1.335119 -2.736064 -11.776642
-1.418761 -2.548868 -11.862945
-1.367550 -3.114250 -11.488536
-1.366896 -3.013587 -11.429853
-1.371979 -2.987311 -11.525986
-1.318649 -2.899057 -11.623198
-1.404142 -3.135408 -11.482900
-1.353749 -3.058820 -11.595177
1.486654 -3.413219 -11.430978
1.510627 -3.292917 -11.427655
1.456903 -3.287909 -11.578307
1.428434 -2.578142 -12.298571
1.321465 -2.450138 -12.331904
1.403845 -3.325344 -11.278264
1.431876 -3.343350 -11.380535
1.435710 -3.283733 -11.519284
1.402734 -3.085433 -11.561232
1.346934 -3.113980 -11.737112
1.320734 -2.855823 -11.901629
1.482811 -2.244934 -12.561164
1.468707 -2.204201 -12.560848
1.481925 -2.740937 -11.847375
1.496458 -2.803599 -12.012678
1.574483 -2.108108 -12.790614
1.497268 -2.069015 -12.957812
1.380970 -2.733803 -12.093367
1.367702 -2.597195 -12.229197
1.413784 -2.427843 -12.219364
1.414431 -2.271267 -12.405331
1.351062 -3.372766 -11.308523
1.259694 -3.266067 -11.429808
1.299298 -3.194397 -11.486340
1.332266 -3.072880 -11.510123
1.439025 -3.009454 -11.654432
1.421519 -2.900230 -11.843565
1.467593 -2.280340 -12.461689
1.459127 -2.210934 -12.598900
1.410977 -2.767063 -11.848431
1.317172 -2.858842 -11.949966
1.512738 -2.142227 -12.651649
1.599821 -2.045743 -12.718615
1.343809 -2.651445 -12.067212
1.409702 -2.731965 -12.164448
1.346461 -2.396324 -12.218675
1.510189 -2.384833 -12.350019
1.272145 -3.350656 -11.340381
1.247315 -3.251740 -11.454824
1.278193 -3.088404 -11.445859
1.381110 -3.100161 -11.521943
1.297651 -3.023732 -11.601996
1.408613 -2.905519 -11.789371
1.452774 -2.273670 -12.535333
1.341237 -2.089005 -12.571307
1.264552 -2.782424 -11.846249
1.360358 -2.787823 -11.858042
1.372842 -2.065349 -12.652508
1.463077 -2.010132 -12.763732
1.427954 -2.703112 -12.001365
1.340885 -2.653921 -12.096349
1.534879 -1.846676 -12.739351
1.252810 -2.397627 -12.081509
1.490409 -2.282303 -12.222730
1.173947 -3.314441 -11.454404
1.132442 -3.260009 -11.372866
1.304102 -3.185938 -11.407899
1.219457 -3.118682 -11.538091
1.231144 -2.942221 -11.532982
1.254605 -2.850659 -11.676736
1.426841 -2.213862 -12.455364
1.385645 -2.229743 -12.451449
1.251727 -2.882312 -11.865355
1.332461 -2.799495 -11.781381
1.420391 -2.157217 -12.545207
1.365036 -2.036632 -12.745723
1.322770 -2.569206 -11.871350
1.388583 -2.614518 -12.118422
1.377908 -1.884372 -12.533489
1.383142 -2.510947 -12.132590
1.332016 -2.169832 -12.213682
1.264345 -3.365429 -11.429330
1.214103 -3.217736 -11.329576
1.176956 -3.085082 -11.309520
1.211350 -3.123257 -11.350489
1.229258 -2.956117 -11.360818
1.264634 -2.920331 -11.552899
1.381873 -2.269090 -12.238209
1.345359 -2.139972 -12.480486
1.271061 -2.680353 -11.709202
1.190644 -2.748402 -11.824089
1.338020 -2.165837 -12.497918
1.352236 -1.937403 -12.538255
1.369964 -2.605032 -11.918576
1.266193 -2.661783 -11.933782
1.365078 -1.947774 -12.629955
1.254964 -2.494582 -12.078723
1.212513 -2.266661 -12.128786
1.168982 -3.490218 -11.415287
1.230549 -3.243301 -11.199631
1.164552 -3.057303 -11.211302
1.240344 -2.957992 -11.311040
1.236583 -2.912012 -11.376834
1.231740 -2.905276 -11.466173
1.404290 -2.227783 -12.281503
1.296819 -2.226390 -12.306960
1.100049 -2.733435 -11.593465
1.220293 -2.658394 -11.806865
1.268874 -2.125109 -12.455246
1.335136 -2.014428 -12.560735
1.289099 -2.492860 -11.832025
1.392650 -2.622497 -11.860721
1.351522 -1.882990 -12.556656
1.228164 -1.789745 -12.709940
1.222548 -2.431131 -11.900874
1.160341 -2.273451 -12.165324
1.190849 -3.464948 -11.373750
1.019514 -3.195767 -11.312414
1.135340 -3.074100 -11.237818
1.194521 -3.053116 -11.301775
1.187189 -3.017562 -11.504952
1.192428 -2.779375 -11.520142
1.238842 -2.261989 -12.127958
1.223602 -2.070704 -12.271254
1.258824 -2.705714 -11.641344
1.154796 -2.740516 -11.629571
1.309616 -2.063315 -12.254500
1.245226 -1.944869 -12.417162
1.168188 -2.520990 -11.813797
1.095901 -2.540282 -11.854233
1.211858 -1.873961 -12.482487
1.199930 -1.859827 -12.621601
1.128232 -2.418123 -11.881697
1.095081 -2.308831 -12.148487
1.208514 -3.402851 -11.264855
1.129689 -3.288258 -11.392443
1.156241 -3.100848 -11.181085
1.073388 -3.135247 -11.311193
1.139390 -2.980302 -11.278835
1.073813 -2.897241 -11.523972
1.081649 -3.601348 -11.563972
1.147916 -2.168754 -12.078271
1.165867 -2.079433 -12.194067
1.067877 -2.850900 -11.533201
1.137017 -2.761678 -11.602041
1.258576 -2.017093 -12.365164
1.151121 -1.981926 -12.488988
1.170509 -2.576430 -11.780586
1.125167 -2.528591 -11.673454
1.243984 -1.855012 -12.437263
1.035406 -1.742484 -12.533561
1.166531 -1.708349 -12.647285
1.080161 -2.428679 -11.871319
1.145928 -2.327775 -11.994332
1.080832 -3.333110 -11.363316
1.084887 -3.310578 -11.275415
1.109664 -3.007758 -11.047108
1.055624 -3.010534 -11.226207
1.059839 -2.986931 -11.279937
1.049404 -2.873336 -11.372926
1.154748 -3.668100 -11.657194
1.218600 -2.230419 -12.147395
1.123832 -2.071438 -12.202264
1.203036 -2.724567 -11.554783
1.096232 -2.713724 -11.572391
1.227759 -2.109574 -12.303146
1.158347 -1.949955 -12.463882
1.045879 -2.502782 -11.659214
1.156413 -2.375941 -11.694351
1.117718 -1.870246 -12.432028
1.089008 -1.786962 -12.442885
1.112780 -1.670614 -12.569815
1.141947 -2.324329 -11.781103
1.047748 -2.222863 -11.905453
1.027092 -3.263265 -11.491866
0.927053 -3.168545 -11.281806
0.958966 -3.092720 -11.188039
0.979297 -2.945891 -11.160935
1.010138 -2.957961 -11.278413
1.090161 -2.831915 -11.343393
1.019064 -3.485856 -11.547463
1.147591 -2.188210 -12.099140
1.162975 -2.147575 -12.068529
1.056368 -2.617164 -11.505800
1.052898 -2.638514 -11.573847
1.114173 -1.960484 -12.189757
1.104570 -1.934837 -12.236198
0.969187 -2.557009 -11.764947
0.964492 -2.493533 -11.576288
0.997786 -1.797413 -12.302378
1.053430 -1.814798 -12.451737
1.092599 -1.693509 -12.478039
1.021520 -1.604422 -12.562216
1.033774 -2.375049 -11.709499
1.093927 -2.366844 -11.916705
0.933205 -3.415968 -11.403465
1.014050 -3.185852 -11.357608
0.964572 -3.152565 -11.207935
0.962280 -2.991221 -11.185183
1.019643 -2.920572 -11.071265
1.164801 -2.784346 -11.364706
1.053523 -3.536965 -11.563940
0.925357 -2.148464 -11.947503
1.088979 -2.210994 -11.995932
1.066097 -2.701877 -11.408609
0.953056 -2.591026 -11.546338
1.063733 -1.989446 -12.254352
1.133584 -1.984739 -12.169084
0.960096 -2.482873 -11.664089
1.007384 -2.463725 -11.554378
1.052405 -1.842612 -12.301248
1.058209 -1.783988 -12.430257
1.130761 -1.756031 -12.433463
1.071902 -1.624766 -12.350737
1.016188 -2.377325 -11.674008
1.043162 -2.347545 -11.788299
1.033210 -3.375916 -11.417534
1.027303 -3.234747 -11.252693
0.957456 -3.016137 -11.181796
1.101067 -2.997473 -11.096240
0.914086 -2.881971 -11.218052
0.919841 -2.690657 -11.265891
1.050075 -3.690026 -11.635502
1.075965 -2.070062 -11.914293
1.113232 -2.092763 -12.013746
0.909468 -2.764754 -11.380828
0.965035 -2.625042 -11.353031
0.957528 -2.053543 -12.154392
0.988382 -1.948013 -12.203071
0.974249 -2.588516 -11.478444
0.956100 -2.560951 -11.746541
0.932760 -1.723033 -12.212540
0.934885 -1.727620 -12.261469
1.083349 -1.704495 -12.392449
0.932370 -1.725245 -12.424027
0.978527 -2.236024 -11.737531
0.955787 -2.202351 -11.816511
0.928538 -3.316049 -11.452000
1.039651 -3.114588 -11.390155
0.970705 -3.071103 -11.025942
0.936171 -2.887290 -10.963125
0.840597 -2.939373 -11.129302
1.001168 -2.816142 -11.239823
0.953906 -3.497376 -11.613342
0.988640 -2.198201 -11.825272
0.899782 -2.121553 -12.048155
0.950463 -2.689561 -11.356045
0.922608 -2.585555 -11.466371
1.084685 -2.004046 -12.068641
0.978478 -1.916899 -12.110335
1.012197 -2.413681 -11.525484
1.049241 -2.425266 -11.556037
0.931606 -1.602240 -12.455796
0.973968 -1.766800 -12.167885
0.890564 -1.753777 -12.364185
0.917631 -1.745307 -12.304999
0.997257 -1.701471 -12.349388
1.024760 -2.377173 -11.707555
1.006555 -2.180741 -11.703741
1.000196 -3.380232 -11.349041
0.987176 -3.391724 -11.377940
0.931946 -3.158133 -11.147881
0.845599 -2.969490 -10.941822
0.913989 -2.854161 -11.081917
0.719080 -2.771544 -11.243742
0.985546 -3.513006 -11.555835
0.918707 -2.182920 -11.794761
0.990977 -2.086884 -11.831796
0.949414 -2.668304 -11.310415
0.872960 -2.580832 -11.433590
0.992593 -2.050115 -12.002813
0.855810 -1.698266 -12.074561
1.043693 -2.542353 -11.460417
0.943914 -2.404289 -11.515804
0.903686 -1.535523 -12.404229
0.940544 -1.767027 -12.189106
0.948489 -1.754365 -12.085220
0.908938 -1.629237 -12.303217
1.022268 -1.481314 -12.330571
0.811257 -2.238282 -11.491295
0.857942 -2.340315 -11.644015
0.780627 -3.326041 -11.409736
0.853600 -3.155749 -11.406197
0.852070 -3.176582 -11.077775
0.844876 -3.007277 -11.018228
0.877994 -2.895007 -11.007303
0.886077 -2.762688 -11.258081
0.854910 -3.514492 -11.520998
0.837839 -2.159016 -11.794832
0.922876 -2.074056 -11.921364
0.859461 -2.588005 -11.301751
0.873683 -2.584793 -11.222725
0.932434 -1.853928 -11.878324
0.850138 -1.880491 -12.058268
0.932067 -2.505893 -11.439920
0.762026 -2.379927 -11.425371
0.871714 -1.541473 -12.334574
0.981277 -1.453870 -12.394094
1.010265 -1.823845 -11.954862
0.979711 -1.747620 -12.093344
0.879633 -1.642746 -12.184365
0.921308 -1.545708 -12.233461
0.823269 -2.347173 -11.524814
0.900523 -2.342452 -11.633832
0.899914 -3.368672 -11.448882
0.759533 -3.255969 -11.350974
0.956190 -3.187164 -11.277068
0.862147 -2.945659 -11.116211
0.815430 -2.883370 -11.037959
0.850641 -2.715360 -11.151293
0.893643 -3.520714 -11.664998
0.861639 -2.172069 -11.760013
0.796998 -2.055604 -11.794479
0.842210 -2.598950 -11.235091
0.846002 -2.565981 -11.127214
0.878745 -1.872046 -11.885751
0.814010 -1.830316 -11.891308
0.859896 -2.467028 -11.363404
0.888455 -2.381929 -11.454187
0.794219 -1.449825 -12.302546
0.942243 -1.461400 -12.386343
0.934201 -1.744401 -11.963185
0.864203 -1.684445 -12.083696
0.838591 -1.747728 -12.104690
0.864176 -1.716094 -12.172621
0.709852 -2.214685 -11.497891
0.886466 -2.190203 -11.656793
0.819864 -3.399415 -11.410032
0.838868 -3.295106 -11.410189
0.756733 -3.156955 -11.157957
0.753158 -3.016470 -11.097584
0.703343 -2.828052 -10.926405
0.762175 -2.731537 -11.146834
0.730126 -3.483336 -11.530236
0.786951 -2.083990 -11.647139
0.795861 -2.033954 -11.844901
0.796613 -2.699340 -11.082966
0.715217 -2.470027 -11.194372
0.776149 -1.991478 -11.877103
0.779830 -1.825069 -12.059413
0.801746 -2.373346 -11.244403
0.859949 -2.420929 -11.229128
0.866684 -1.576088 -12.236796
0.925641 -1.516846 -12.257422
0.771730 -1.684273 -11.914347
0.823564 -1.696241 -11.868177
0.854201 -1.595943 -12.150411
0.844247 -1.663317 -12.098671
0.773004 -2.264278 -11.376283
0.839275 -2.235648 -11.607880
0.689838 -3.413192 -11.450165
0.767047 -3.335717 -11.373667
0.742162 -3.025051 -11.098200
0.687449 -2.952822 -10.929882
0.808549 -2.822306 -10.943698
0.792988 -2.765829 -11.021044
0.864895 -3.728108 -11.814281
0.869580 -3.584384 -11.627149
0.819708 -2.175757 -11.618972
0.783915 -2.067706 -11.800729
0.746531 -2.576795 -11.126548
0.684630 -2.515073 -11.104687
0.725551 -1.902479 -11.766487
0.733088 -1.794039 -11.721050
0.731274 -2.499952 -11.327485
0.811272 -2.391735 -11.253750
0.770109 -1.509784 -12.256119
0.772146 -1.415306 -12.219674
0.781050 -1.518851 -12.242936
0.769336 -1.759735 -11.859350
0.829783 -1.763559 -11.894155
0.843261 -1.578385 -12.025405
0.803500 -1.579837 -12.011488
0.711136 -2.319159 -11.422950
0.725659 -2.069766 -11.483920
0.781011 -3.419294 -11.442360
0.644438 -3.315110 -11.328777
0.637100 -3.084009 -11.151748
0.740454 -3.012158 -11.132749
0.677053 -2.795633 -10.848769
0.740589 -2.632576 -11.069324
0.803526 -3.862990 -11.747047
0.822437 -3.522105 -11.459889
0.904841 -2.044732 -11.460645
0.773451 -2.054800 -11.527302
0.728487 -2.582017 -11.137353
0.751841 -2.565870 -11.150720
0.820069 -1.887354 -11.664833
0.781609 -1.827404 -11.912557
0.553099 -2.565818 -11.118106
0.743989 -2.304685 -11.277940
0.787469 -1.651287 -12.008924
0.698513 -1.392863 -12.131170
0.745966 -1.350577 -12.235474
0.728906 -1.725568 -11.761242
0.716845 -1.698348 -11.866145
0.648121 -1.610087 -11.919419
0.803122 -1.593248 -12.003937
0.653677 -2.339604 -11.455545
0.613729 -2.159316 -11.379932
0.699080 -3.405653 -11.392926
0.742173 -3.263798 -11.351999
0.727342 -3.001857 -11.188242
0.623834 -3.002168 -11.115110
0.613830 -2.873267 -10.977126
0.797329 -2.623069 -10.917087
0.677532 -3.766756 -11.754532
0.637061 -3.472923 -11.674888
0.729616 -2.065586 -11.442765
0.719474 -1.979092 -11.546907
0.684399 -2.594452 -10.939518
0.597749 -2.555806 -11.054969
0.760807 -1.896036 -11.711967
0.695133 -1.731882 -11.808396
0.718857 -2.440422 -11.199158
0.676955 -2.362992 -11.192063
0.719327 -1.434169 -12.047077
0.681601 -1.485879 -12.104696
0.611222 -1.340921 -12.359544
0.729395 -1.822182 -11.828882
0.594010 -1.700128 -11.803652
0.677092 -1.715510 -11.836226
0.759447 -1.581487 -11.904360
0.746026 -2.215520 -11.223453
0.620563 -2.082696 -11.398495
0.705136 -3.372397 -11.346793
0.682451 -3.326685 -11.303218
0.537041 -3.121640 -11.211735
0.648430 -2.972773 -10.969886
0.602575 -2.867341 -10.854871
0.674104 -2.792368 -10.866864
0.719560 -3.652690 -11.720877
0.629968 -3.563644 -11.608596
0.756684 -2.065300 -11.556820
0.687292 -2.066611 -11.577996
0.721780 -2.579565 -10.991050
0.599016 -2.543676 -11.012870
0.680002 -1.898937 -11.600153
0.664725 -1.876269 -11.743659
0.670653 -2.364862 -11.003407
0.631708 -2.313253 -11.209080
0.521401 -1.425344 -11.987824
0.597617 -1.429910 -12.043919
0.760950 -1.457858 -12.081825
0.670781 -1.492721 -12.195857
0.670362 -1.850481 -11.817260
0.625133 -1.666368 -11.744492
0.597255 -1.626969 -11.778260
0.721815 -1.505752 -11.982078
0.664216 -2.265513 -11.237658
0.488011 -2.060006 -11.368968
0.576217 -3.340873 -11.442087
0.538222 -3.353103 -11.315404
0.664425 -3.045109 -11.185124
0.665621 -2.875717 -10.973927
0.555954 -2.822195 -10.769947
0.657169 -2.579002 -10.906713
0.703674 -3.656369 -11.731959
0.701498 -3.512510 -11.613247
0.578776 -1.982923 -11.418381
0.666831 -2.016367 -11.437068
0.632858 -2.558781 -10.900051
0.623365 -2.430053 -10.902876
0.534366 -1.840277 -11.694367
0.601390 -1.958021 -11.670430
0.553582 -2.431607 -10.992847
0.478444 -2.340397 -11.206759
0.653114 -1.544087 -11.979156
0.672421 -1.491540 -11.968218
0.621942 -1.411053 -12.067319
0.628770 -1.153385 -12.237812
0.631298 -1.784759 -11.653603
0.688905 -1.634879 -11.774850
0.542721 -1.244433 -12.226465
0.625368 -1.573868 -11.769763
0.607198 -1.524218 -11.790835
0.615224 -2.292244 -11.171734
0.600816 -2.159881 -11.337804
0.574793 -3.338357 -11.409859
0.552821 -3.384441 -11.331551
0.544042 -3.127963 -11.216640
0.546350 -2.875030 -10.963720
0.653244 -2.811375 -10.965581
0.530218 -2.638815 -10.890323
0.704006 -3.773302 -11.837353
0.546786 -3.608060 -11.665624
0.536648 -1.971334 -11.446430
0.682766 -2.114944 -11.360650
0.604250 -2.557086 -10.820298
0.562871 -2.550456 -10.980342
0.614424 -1.827045 -11.534224
0.665554 -1.894150 -11.633928
0.609951 -2.500702 -11.075559
0.590688 -2.383016 -11.093849
0.641469 -1.443268 -11.910414
0.611635 -1.419144 -11.966089
0.538412 -1.308733 -11.975670
0.671087 -1.295825 -12.190453
0.577100 -1.725065 -11.578707
0.565518 -1.640135 -11.665231
0.539831 -1.426517 -12.139658
0.588257 -1.598805 -11.853745
0.546874 -1.484784 -11.833065
0.452246 -2.285751 -11.181659
0.539128 -2.235408 -11.298714
0.474296 -3.416365 -11.496209
0.611211 -3.300247 -11.383655
0.416208 -3.138643 -11.215951
0.527634 -2.962680 -11.092902
0.473549 -2.837733 -10.983188
0.531615 -2.693057 -10.716690
0.611384 -3.809657 -11.802620
0.491616 -3.527594 -11.690530
0.509660 -1.932491 -11.300734
0.659462 -1.939492 -11.390015
0.524376 -2.478853 -10.901374
0.645080 -2.454834 -10.846588
0.610136 -1.886860 -11.461103
0.761006 -1.827020 -11.527120
0.455285 -2.512788 -11.058976
0.452024 -2.458402 -11.112592
0.621252 -1.381977 -11.809534
0.479501 -1.389108 -11.987448
0.569162 -1.299082 -12.000579
0.451466 -1.186179 -12.008465
0.512667 -1.716822 -11.456878
0.573359 -1.680001 -11.596382
0.540133 -1.234656 -11.934893
0.564914 -1.604943 -11.724693
0.621984 -1.621845 -11.876935
0.570577 -2.185243 -11.172686
0.485258 -2.103615 -11.207369
0.590259 -3.435603 -11.572782
0.565837 -3.212989 -11.340328
0.561565 -3.167832 -11.175604
0.592693 -2.847862 -11.065623
0.611808 -2.777316 -10.838253
0.511456 -2.649155 -10.752625
0.595573 -3.794674 -11.736737
0.469878 -3.602193 -11.568707
0.552869 -2.040547 -11.365365
0.489961 -1.958648 -11.330583
0.474208 -2.481638 -10.965822
0.543694 -2.446799 -10.843006
0.540802 -1.890779 -11.444195
0.620636 -1.843766 -11.548179
0.499204 -2.419882 -10.815939
0.510168 -2.384410 -10.953326
0.624112 -1.440106 -11.836176
0.486401 -1.451445 -11.885418
0.546276 -1.366254 -11.805307
0.610322 -1.331362 -12.028181
0.591860 -1.773231 -11.599192
0.482480 -1.673943 -11.666049
0.508807 -1.281958 -12.005966
0.396756 -1.221204 -12.114208
0.511765 -1.772645 -11.603782
0.498767 -1.533366 -11.814287
0.501850 -2.271083 -10.938534
0.473664 -2.060992 -11.107754
0.519254 -3.423567 -11.440887
0.381558 -3.283691 -11.305472
0.570338 -3.104686 -11.215606
0.461120 -2.992073 -11.094079
0.424533 -2.830882 -10.919508
0.434929 -2.768031 -10.742499
0.572538 -3.807544 -11.764158
0.511161 -3.596528 -11.555758
0.525736 -2.024059 -11.163903
0.497177 -2.057044 -11.260685
0.372568 -2.500288 -10.753841
0.606517 -2.475377 -10.764007
0.554469 -1.976739 -11.474998
0.503362 -1.844245 -11.535321
0.529262 -2.385031 -10.929809
0.571975 -2.335687 -11.012706
0.476806 -1.545340 -11.711645
0.569510 -1.356219 -11.803020
0.487215 -1.334490 -11.827442
0.413538 -1.207497 -11.931923
0.459946 -1.735817 -11.441692
0.444027 -1.624066 -11.544097
0.446789 -1.206639 -11.904360
0.517838 -1.270637 -12.054902
0.533690 -1.560160 -11.516076
0.412256 -1.517476 -11.705752
0.386325 -2.273485 -11.131210
0.511917 -2.142619 -11.114101
0.508035 -3.355846 -11.572501
0.524352 -3.199752 -11.450129
0.462025 -3.109748 -11.147934
0.455675 -3.014122 -11.061193
0.440059 -3.931453 -11.931978
0.462186 -2.878746 -10.906311
0.418206 -2.626113 -10.822716
0.567070 -3.709200 -11.732114
0.424565 -3.566673 -11.714692
0.509921 -2.059163 -11.158624
0.344638 -1.880847 -11.168669
0.485912 -2.533662 -10.810327
0.487412 -2.444797 -10.753992
0.433411 -1.898347 -11.285081
0.489581 -1.746351 -11.449604
0.399590 -2.373759 -10.749073
0.401197 -2.316920 -10.873078
0.343791 -1.358624 -11.777581
0.389052 -1.355766 -11.827754
0.373466 -1.423053 -11.809329
0.412246 -1.225515 -11.887231
0.461260 -1.785853 -11.449085
0.442417 -1.580890 -11.480264
0.510969 -1.205012 -11.946280
0.511435 -1.192741 -11.968495
0.413687 -1.747766 -11.505805
0.495972 -1.670458 -11.641271
0.394025 -2.102822 -10.813550
0.448699 -2.143838 -11.109490
0.425007 -3.304334 -11.457526
0.408687 -3.245580 -11.327281
0.349279 -3.042936 -11.189042
0.278550 -2.895453 -11.033895
0.466936 -3.890243 -11.943385
0.563405 -2.783454 -10.920142
0.478587 -2.642531 -10.907228
0.373387 -3.752785 -11.797815
0.496462 -3.655065 -11.716301
0.383693 -2.044250 -11.091116
0.364862 -1.958538 -11.293345
0.448632 -2.571838 -10.577868
0.368717 -2.377760 -10.754525
0.413121 -1.793882 -11.191318
0.410539 -1.785379 -11.387674
0.332814 -2.417817 -10.784709
0.402302 -2.319055 -10.893719
0.360465 -1.539622 -11.624125
0.398330 -1.342825 -11.638658
0.412820 -1.186954 -11.768015
0.377068 -1.324854 -11.806282
0.362846 -1.751030 -11.389410
0.418194 -1.720357 -11.424070
0.365235 -1.235684 -11.959961
0.375120 -1.127304 -11.922767
0.403800 -1.519565 -11.505128
0.417836 -1.549368 -11.572334
0.362101 -1.029733 -11.909383
0.374956 -2.228023 -10.820746
0.486745 -2.156644 -11.067666
0.415890 -3.370497 -11.522209
0.504284 -3.274686 -11.378013
0.367640 -3.085334 -11.144018
0.391028 -2.959898 -11.094586
0.417014 -3.950298 -12.025094
0.438060 -2.784347 -10.872011
0.365612 -2.738915 -10.650748
0.411061 -3.818299 -11.824192
0.517409 -3.615341 -11.632050
0.404007 -1.971081 -11.125094
0.432179 -2.022009 -11.179850
0.333889 -2.433740 -10.597766
0.366056 -2.417548 -10.646211
0.408125 -1.854804 -11.227043
0.298716 -1.786218 -11.396215
0.302455 -2.378019 -10.703529
0.357989 -2.378094 -10.836490
0.341522 -1.426068 -11.519156
0.365207 -1.315396 -11.564119
0.346696 -1.290892 -11.822765
0.250778 -1.201695 -11.790207
0.356199 -1.781813 -11.379293
0.257343 -1.669630 -11.449831
0.424657 -1.149599 -11.733665
0.440242 -1.156237 -11.869904
0.319348 -1.504692 -11.471711
0.405935 -1.428717 -11.640389
0.295500 -1.029721 -11.967760
0.253022 -2.086509 -10.888544
0.306226 -2.057380 -10.926768
0.428081 -3.333644 -11.480009
0.332259 -3.490852 -11.289164
0.338220 -3.179787 -11.191543
0.430505 -3.026635 -11.022379
0.225759 -3.982550 -12.006992
0.320471 -2.718104 -10.950168
0.313880 -2.620471 -10.776997
0.286892 -3.772181 -11.933571
0.352426 -3.403053 -11.576781
0.316717 -2.058028 -10.928215
0.376846 -2.031922 -11.128355
0.285238 -2.581493 -10.676385
0.301711 -2.369794 -10.564906
0.327137 -1.947987 -11.273317
0.330964 -1.681701 -11.337371
0.331590 -2.318685 -10.716804
0.355724 -2.206897 -10.727251
0.334109 -1.399795 -11.553617
0.318551 -1.435402 -11.566457
0.392988 -1.277379 -11.677884
0.291606 -1.247740 -11.658517
0.417954 -1.641529 -11.370439
0.212708 -1.653733 -11.345505
0.461836 -1.199991 -11.825624
0.278265 -1.189322 -11.781962
0.311874 -1.542553 -11.335851
0.313993 -1.577190 -11.493234
0.357564 -1.100731 -11.898716
0.317528 -0.914089 -11.913291
0.244709 -2.152784 -10.808307
0.376892 -2.093463 -10.900980
0.366022 -3.430814 -11.503618
0.356752 -3.334582 -11.411029
0.252154 -3.109984 -11.163118
0.360650 -3.034230 -11.005719
0.364183 -3.896356 -12.024057
0.295677 -2.758853 -10.922271
0.332145 -2.591664 -10.822141
0.400019 -3.757205 -11.853898
0.394014 -3.563691 -11.672234
0.200927 -2.015455 -10.927691
0.277553 -1.879704 -11.121461
0.296338 -2.536586 -10.746817
0.314764 -2.399505 -10.619903
0.267894 -1.862082 -11.049023
0.267872 -1.803251 -11.135125
0.417712 -2.319460 -10.669442
0.175279 -2.239319 -10.721583
0.327613 -1.475430 -11.510762
0.180536 -1.411025 -11.475003
0.245522 -1.367254 -11.705675
0.347757 -1.211650 -11.663661
0.223719 -1.686917 -11.252648
0.304341 -1.664169 -11.293230
0.285177 -1.239502 -11.650325
0.230163 -1.075185 -11.802154
0.347512 -1.586011 -11.286156
0.183492 -1.521862 -11.408144
0.340191 -1.060354 -11.806113
0.344747 -1.056721 -11.928882
0.338160 -2.172073 -10.753865
0.255295 -2.092263 -10.780538
0.327365 -3.298526 -11.531302
0.266117 -3.238524 -11.282389
0.365934 -3.023165 -11.313603
0.352524 -3.042453 -11.188573
0.255984 -4.098352 -11.974832
0.265419 -2.798911 -10.906687
0.217080 -2.744347 -10.780867
0.334096 -3.771911 -11.761401
0.301081 -3.475847 -11.708079
0.206788 -1.960054 -10.864984
0.252632 -1.868818 -11.034486
0.329400 -2.458077 -10.547560
0.189943 -2.394906 -10.544635
0.206664 -1.843466 -11.195403
0.213216 -1.756690 -11.217063
0.336460 -2.228261 -10.771496
0.182586 -2.245351 -10.765324
0.231091 -1.303858 -11.548573
0.315976 -1.446395 -11.485961
0.234821 -1.331819 -11.484327
0.309926 -1.260122 -11.651547
0.107682 -1.655788 -11.194689
0.185251 -1.669604 -11.315597
0.278170 -1.093913 -11.761506
0.312056 -1.110750 -11.751990
0.291106 -1.518515 -11.254348
0.305556 -1.386278 -11.348116
0.366096 -1.098183 -11.871589
0.276894 -0.933560 -11.913806
0.169735 -0.959253 -11.792289
0.229507 -2.181057 -10.637401
0.159565 -2.103278 -11.007903
0.181100 -3.350440 -11.517738
0.336704 -3.259956 -11.351495
0.242339 -3.203240 -11.283448
0.269630 -2.908791 -11.160397
0.300048 -3.936167 -11.941621
0.185053 -2.759944 -10.975551
0.274060 -2.583073 -10.793556
0.212858 -3.762478 -11.778977
0.187996 -3.458443 -11.600725
0.254809 -1.920381 -10.894295
0.242359 -1.971088 -10.967938
0.202514 -2.514632 -10.636617
0.305218 -2.485407 -10.655599
0.302408 -1.796679 -10.944888
0.236558 -1.840097 -11.148165
0.206395 -2.281524 -10.594287
0.294735 -2.209478 -10.680486
0.230142 -1.395360 -11.330468
0.263539 -1.377582 -11.405718
0.257725 -1.445783 -11.567834
0.185152 -1.200487 -11.478723
0.218494 -1.684650 -11.094868
0.251550 -1.629496 -11.232737
0.193679 -1.251406 -11.597796
0.134817 -1.039855 -11.739924
0.212175 -1.388267 -11.256770
0.247057 -1.467166 -11.407226
0.272604 -0.995298 -11.796787
0.240895 -0.955975 -11.809250
0.148440 -0.970167 -11.919586
0.182876 -2.123375 -10.724402
0.105018 -2.082182 -10.769468
0.220506 -3.323570 -11.516782
0.249202 -3.232302 -11.337607
0.177156 -3.093842 -11.264739
0.257130 -3.024080 -11.080449
0.273777 -3.953099 -12.029665
0.137655 -2.815601 -10.909363
0.268008 -2.631838 -10.853975
0.356932 -3.760120 -11.859789
0.193842 -3.556349 -11.715745
0.192974 -2.064545 -10.967967
0.308625 -1.905161 -11.091729
0.215990 -2.511926 -10.597932
0.310659 -2.478998 -10.526351
0.152210 -1.812549 -10.960931
0.224134 -1.812356 -11.119310
0.233444 -2.241808 -10.408780
0.222931 -2.172955 -10.636274
0.083592 -1.416353 -11.294674
0.175150 -1.322367 -11.316425
0.236115 -1.342568 -11.464042
0.207175 -1.144383 -11.506537
0.160455 -1.711121 -11.100180
0.278211 -1.559290 -11.232209
0.230911 -1.256837 -11.617741
0.138895 -1.261299 -11.700490
0.163343 -1.577655 -11.190819
0.130248 -1.554754 -11.326714
0.318723 -1.027245 -11.704676
0.218656 -0.987390 -11.731394
0.186219 -0.862462 -11.844707
0.096948 -2.029286 -10.636756
0.194707 -2.118489 -10.721533
