# .PCD v0.7 - Point Cloud Data file format
VERSION 0.7
FIELDS x y z rgb label
SIZE 4 4 4 4 4
TYPE F F F F U
COUNT 1 1 1 1 1
WIDTH 744
HEIGHT 1
VIEWPOINT 0 0 0 1 0 0 0
POINTS 744
DATA ascii
-1.004104 -2.631970 -11.451166 1.880790849211783e-38 1700951363
-1.060004 -2.004551 -12.088669 1.880790849211783e-38 1700951363
-1.081428 -1.936244 -12.332996 1.880790849211783e-38 1700951363
-1.018072 -2.556607 -11.610459 1.880790849211783e-38 1700951363
-1.026419 -2.491097 -11.705654 1.880790849211783e-38 1700951363
-1.134820 -1.883379 -12.508277 1.880790849211783e-38 1700951363
-1.145942 -1.818876 -12.630868 1.880790849211783e-38 1700951363
-1.150905 -1.756452 -12.685573 1.880790849211783e-38 1700951363
-1.155084 -1.689660 -12.731641 1.880790849211783e-38 1700951363
-1.065456 -2.367298 -11.743735 1.880790849211783e-38 1700951363
-1.091293 -2.298788 -12.028511 1.880790849211783e-38 1700951363
-1.057358 -3.447297 -11.654475 1.880790849211783e-38 1700951363
-1.042509 -3.311619 -11.490807 1.880790849211783e-38 1700951363
-1.036193 -3.179029 -11.421185 1.880790849211783e-38 1700951363
-1.020435 -3.029105 -11.247497 1.880790849211783e-38 1700951363
-1.013007 -2.892465 -11.165622 1.880790849211783e-38 1700951363
-1.031967 -2.811191 -11.374605 1.880790849211783e-38 1700951363
-1.095267 -2.210522 -12.072319 1.880790849211783e-38 1700951363
-1.105546 -2.121216 -12.185610 1.880790849211783e-38 1700951363
-1.033940 -2.690252 -11.396358 1.880790849211783e-38 1700951363
-1.037408 -2.628865 -11.434580 1.880790849211783e-38 1700951363
-1.102318 -2.015269 -12.150032 1.880790849211783e-38 1700951363
-1.120147 -1.938895 -12.346558 1.880790849211783e-38 1700951363
-1.060010 -2.573428 -11.683704 1.880790849211783e-38 1700951363
-1.066230 -2.501690 -11.752268 1.880790849211783e-38 1700951363
-1.177225 -1.890906 -12.554770 1.880790849211783e-38 1700951363
-1.186309 -1.822376 -12.651650 1.880790849211783e-38 1700951363
-1.192120 -1.760826 -12.713625 1.880790849211783e-38 1700951363
-1.105568 -2.377399 -11.790565 1.880790849211783e-38 1700951363
-1.132278 -2.308396 -12.075423 1.880790849211783e-38 1700951363
-1.076611 -3.309931 -11.481753 1.880790849211783e-38 1700951363
-1.067812 -3.170651 -11.387916 1.880790849211783e-38 1700951363
-1.055411 -3.032148 -11.255661 1.880790849211783e-38 1700951363
-1.048397 -2.897217 -11.180852 1.880790849211783e-38 1700951363
-1.071421 -2.824776 -11.426395 1.880790849211783e-38 1700951363
-1.138800 -2.224445 -12.144977 1.880790849211783e-38 1700951363
-1.145284 -2.126771 -12.214127 1.880790849211783e-38 1700951363
-1.068458 -2.690632 -11.394795 1.880790849211783e-38 1700951363
-1.081278 -2.651891 -11.531527 1.880790849211783e-38 1700951363
-1.145536 -2.026909 -12.216811 1.880790849211783e-38 1700951363
-1.163951 -1.949903 -12.413200 1.880790849211783e-38 1700951363
-1.093443 -2.569198 -11.661258 1.880790849211783e-38 1700951363
-1.110664 -2.522114 -11.844921 1.880790849211783e-38 1700951363
-1.224564 -1.905658 -12.649083 1.880790849211783e-38 1700951363
-1.230568 -1.831465 -12.711100 1.880790849211783e-38 1700951363
-1.239475 -1.773728 -12.803102 1.880790849211783e-38 1700951363
-1.146952 -2.389544 -11.847390 1.880790849211783e-38 1700951363
-1.171729 -2.314393 -12.103317 1.880790849211783e-38 1700951363
-1.110772 -3.308551 -11.473671 1.880790849211783e-38 1700951363
-1.103800 -3.175388 -11.401652 1.880790849211783e-38 1700951363
-1.094267 -3.045826 -11.303185 1.880790849211783e-38 1700951363
-1.089126 -2.915993 -11.250077 1.880790849211783e-38 1700951363
-1.109192 -2.833242 -11.457346 1.880790849211783e-38 1700951363
-1.177599 -2.228561 -12.163952 1.880790849211783e-38 1700951363
-1.190271 -2.141442 -12.294847 1.880790849211783e-38 1700951363
-1.110811 -2.710131 -11.474076 1.880790849211783e-38 1700951363
-1.116281 -2.652435 -11.530577 1.880790849211783e-38 1700951363
-1.185217 -2.031778 -12.242643 1.880790849211783e-38 1700951363
-1.206024 -1.957435 -12.457565 1.880790849211783e-38 1700951363
-1.132761 -2.578651 -11.700802 1.880790849211783e-38 1700951363
-1.150311 -2.530754 -11.882081 1.880790849211783e-38 1700951363
-1.267560 -1.912980 -12.693919 1.880790849211783e-38 1700951363
-1.276493 -1.842426 -12.783378 1.880790849211783e-38 1700951363
-1.281124 -1.777948 -12.829758 1.880790849211783e-38 1700951363
-1.185408 -2.395058 -11.871208 1.880790849211783e-38 1700951363
-1.213928 -2.325315 -12.156824 1.880790849211783e-38 1700951363
-1.149282 -3.319846 -11.509426 1.880790849211783e-38 1700951363
-1.140872 -3.182893 -11.425212 1.880790849211783e-38 1700951363
-1.123477 -3.032663 -11.251001 1.880790849211783e-38 1700951363
-1.123417 -2.916942 -11.250403 1.880790849211783e-38 1700951363
-1.148650 -2.845401 -11.503104 1.880790849211783e-38 1700951363
-1.220780 -2.240491 -12.225439 1.880790849211783e-38 1700951363
-1.231184 -2.148139 -12.329636 1.880790849211783e-38 1700951363
-1.149430 -2.719638 -11.510912 1.880790849211783e-38 1700951363
-1.155833 -2.663451 -11.575032 1.880790849211783e-38 1700951363
-1.226621 -2.039235 -12.283932 1.880790849211783e-38 1700951363
-1.245298 -1.960122 -12.470972 1.880790849211783e-38 1700951363
-1.173691 -2.591115 -11.753867 1.880790849211783e-38 1700951363
-1.185242 -2.528834 -11.869550 1.880790849211783e-38 1700951363
-1.224116 -2.400771 -11.895887 1.880790849211783e-38 1700951363
-1.255905 -2.335206 -12.204805 1.880790849211783e-38 1700951363
-1.179563 -3.194375 -11.462921 1.880790849211783e-38 1700951363
-1.160810 -3.041594 -11.280684 1.880790849211783e-38 1700951363
-1.165679 -2.937960 -11.328004 1.880790849211783e-38 1700951363
-1.187702 -2.855901 -11.542021 1.880790849211783e-38 1700951363
-1.262513 -2.249167 -12.269029 1.880790849211783e-38 1700951363
-1.273880 -2.157484 -12.379493 1.880790849211783e-38 1700951363
-1.188167 -2.728889 -11.546536 1.880790849211783e-38 1700951363
-1.198261 -2.680285 -11.644628 1.880790849211783e-38 1700951363
-1.270880 -2.050885 -12.350332 1.880790849211783e-38 1700951363
-1.292226 -1.974369 -12.557775 1.880790849211783e-38 1700951363
-1.215351 -2.604442 -11.810713 1.880790849211783e-38 1700951363
-1.227584 -2.542404 -11.929593 1.880790849211783e-38 1700951363
-1.266951 -2.414038 -11.957858 1.880790849211783e-38 1700951363
-1.296838 -2.342665 -12.239937 1.880790849211783e-38 1700951363
-1.214614 -3.195649 -11.463881 1.880790849211783e-38 1700951363
-1.199479 -3.053436 -11.321039 1.880790849211783e-38 1700951363
-1.204309 -2.948905 -11.366626 1.880790849211783e-38 1700951363
-1.226234 -2.864607 -11.573563 1.880790849211783e-38 1700951363
-1.307451 -2.262909 -12.340106 1.880790849211783e-38 1700951363
-1.315321 -2.164247 -12.414388 1.880790849211783e-38 1700951363
-1.225206 -2.733844 -11.563859 1.880790849211783e-38 1700951363
-1.236451 -2.686967 -11.669986 1.880790849211783e-38 1700951363
-1.256042 -2.615009 -11.854897 1.880790849211783e-38 1700951363
-1.269171 -2.553698 -11.978815 1.880790849211783e-38 1700951363
-1.312460 -2.431546 -12.040680 1.880790849211783e-38 1700951363
-1.342175 -2.357468 -12.313287 1.880790849211783e-38 1700951363
-1.250852 -3.199919 -11.475477 1.880790849211783e-38 1700951363
-1.232845 -3.051523 -11.310280 1.880790849211783e-38 1700951363
-1.239780 -2.951750 -11.373904 1.880790849211783e-38 1700951363
-1.262333 -2.867330 -11.580807 1.880790849211783e-38 1700951363
-1.267702 -2.750387 -11.630064 1.880790849211783e-38 1700951363
-1.275954 -2.696079 -11.705765 1.880790849211783e-38 1700951363
-1.295583 -2.622685 -11.885844 1.880790849211783e-38 1700951363
-1.310992 -2.564847 -12.027213 1.880790849211783e-38 1700951363
-1.284538 -3.197640 -11.463484 1.880790849211783e-38 1700951363
-1.266605 -3.050696 -11.303444 1.880790849211783e-38 1700951363
-1.281982 -2.970068 -11.440674 1.880790849211783e-38 1700951363
-1.305049 -2.884564 -11.646531 1.880790849211783e-38 1700951363
-1.304881 -2.754844 -11.645031 1.880790849211783e-38 1700951363
-1.317735 -2.709414 -11.759743 1.880790849211783e-38 1700951363
-1.339600 -2.638796 -11.954871 1.880790849211783e-38 1700951363
-1.349329 -2.568791 -12.041690 1.880790849211783e-38 1700951363
-1.319413 -3.198384 -11.462226 1.880790849211783e-38 1700951363
-1.305123 -3.061091 -11.338078 1.880790849211783e-38 1700951363
-1.313392 -2.963099 -11.409919 1.880790849211783e-38 1700951363
-1.349554 -2.904763 -11.724068 1.880790849211783e-38 1700951363
-1.349128 -2.773618 -11.720371 1.880790849211783e-38 1700951363
-1.363429 -2.729903 -11.844610 1.880790849211783e-38 1700951363
-1.349177 -3.187045 -11.417571 1.880790849211783e-38 1700951363
-1.343901 -3.071579 -11.372922 1.880790849211783e-38 1700951363
-1.357322 -2.984037 -11.486503 1.880790849211783e-38 1700951363
-1.386960 -2.909068 -11.737316 1.880790849211783e-38 1700951363
-1.382644 -3.081494 -11.405515 1.880790849211783e-38 1700951363
-1.398236 -2.997494 -11.534138 1.880790849211783e-38 1700951363
1.392987 -3.381739 -11.394969 1.880790849211783e-38 1700951363
1.393095 -3.295168 -11.395849 1.880790849211783e-38 1700951363
1.415683 -3.234123 -11.580627 1.880790849211783e-38 1700951363
1.459207 -2.475265 -12.243119 1.880790849211783e-38 1700951363
1.486157 -2.390065 -12.469235 1.880790849211783e-38 1700951363
1.356279 -3.375928 -11.379531 1.880790849211783e-38 1700951363
1.351286 -3.277142 -11.337636 1.880790849211783e-38 1700951363
1.376528 -3.224234 -11.549423 1.880790849211783e-38 1700951363
1.381638 -3.131201 -11.592297 1.880790849211783e-38 1700951363
1.391302 -3.032947 -11.673381 1.880790849211783e-38 1700951363
1.419587 -2.952392 -11.910695 1.880790849211783e-38 1700951363
1.495996 -2.305116 -12.551791 1.880790849211783e-38 1700951363
1.506333 -2.206565 -12.638518 1.880790849211783e-38 1700951363
1.419454 -2.819722 -11.909582 1.880790849211783e-38 1700951363
1.429271 -2.765163 -11.991951 1.880790849211783e-38 1700951363
1.500774 -2.094734 -12.591877 1.880790849211783e-38 1700951363
1.521811 -2.011071 -12.768389 1.880790849211783e-38 1700951363
1.447439 -2.682809 -12.144384 1.880790849211783e-38 1700951363
1.463194 -2.621029 -12.276575 1.880790849211783e-38 1700951363
1.415844 -2.464068 -12.192063 1.880790849211783e-38 1700951363
1.440551 -2.376874 -12.404815 1.880790849211783e-38 1700951363
1.322547 -3.377440 -11.388668 1.880790849211783e-38 1700951363
1.310075 -3.259691 -11.281264 1.880790849211783e-38 1700951363
1.329309 -3.194478 -11.446897 1.880790849211783e-38 1700951363
1.341433 -3.119019 -11.551294 1.880790849211783e-38 1700951363
1.354333 -3.029014 -11.662381 1.880790849211783e-38 1700951363
1.379244 -2.942969 -11.876896 1.880790849211783e-38 1700951363
1.448649 -2.290119 -12.474554 1.880790849211783e-38 1700951363
1.455684 -2.187738 -12.535132 1.880790849211783e-38 1700951363
1.378068 -2.808589 -11.866768 1.880790849211783e-38 1700951363
1.387200 -2.753454 -11.945407 1.880790849211783e-38 1700951363
1.453149 -2.080923 -12.513297 1.880790849211783e-38 1700951363
1.477900 -2.003752 -12.726437 1.880790849211783e-38 1700951363
1.404508 -2.670829 -12.094442 1.880790849211783e-38 1700951363
1.415698 -2.601794 -12.190804 1.880790849211783e-38 1700951363
1.367434 -2.443282 -12.093397 1.880790849211783e-38 1700951363
1.402257 -2.375393 -12.401368 1.880790849211783e-38 1700951363
1.285266 -3.369764 -11.366714 1.880790849211783e-38 1700951363
1.275874 -3.259255 -11.283655 1.880790849211783e-38 1700951363
1.290037 -3.182776 -11.408908 1.880790849211783e-38 1700951363
1.299379 -3.101810 -11.491533 1.880790849211783e-38 1700951363
1.311231 -3.010823 -11.596348 1.880790849211783e-38 1700951363
1.337694 -2.930431 -11.830383 1.880790849211783e-38 1700951363
1.406097 -2.282129 -12.435328 1.880790849211783e-38 1700951363
1.418018 -2.187963 -12.540758 1.880790849211783e-38 1700951363
1.337352 -2.798294 -11.827359 1.880790849211783e-38 1700951363
1.340579 -2.731877 -11.855896 1.880790849211783e-38 1700951363
1.413210 -2.077700 -12.498237 1.880790849211783e-38 1700951363
1.431859 -1.993102 -12.663170 1.880790849211783e-38 1700951363
1.361671 -2.658424 -12.042430 1.880790849211783e-38 1700951363
1.370724 -2.586321 -12.122495 1.880790849211783e-38 1700951363
1.405039 -1.926605 -12.770847 1.880790849211783e-38 1700951363
1.328424 -2.438639 -12.074476 1.880790849211783e-38 1700951363
1.358065 -2.363588 -12.343893 1.880790849211783e-38 1700951363
1.255632 -3.382300 -11.412838 1.880790849211783e-38 1700951363
1.231613 -3.232424 -11.194530 1.880790849211783e-38 1700951363
1.250179 -3.168980 -11.363276 1.880790849211783e-38 1700951363
1.255076 -3.078170 -11.407789 1.880790849211783e-38 1700951363
1.271174 -2.998846 -11.554104 1.880790849211783e-38 1700951363
1.295770 -2.916391 -11.777665 1.880790849211783e-38 1700951363
1.357647 -2.263889 -12.340090 1.880790849211783e-38 1700951363
1.367774 -2.168283 -12.432141 1.880790849211783e-38 1700951363
1.294587 -2.783058 -11.766918 1.880790849211783e-38 1700951363
1.300670 -2.723198 -11.822206 1.880790849211783e-38 1700951363
1.368320 -2.066842 -12.437100 1.880790849211783e-38 1700951363
1.383932 -1.979189 -12.579003 1.880790849211783e-38 1700951363
1.321971 -2.651657 -12.015818 1.880790849211783e-38 1700951363
1.326318 -2.571126 -12.055330 1.880790849211783e-38 1700951363
1.361383 -1.919368 -12.727042 1.880790849211783e-38 1700951363
1.288209 -2.431480 -12.042972 1.880790849211783e-38 1700951363
1.315933 -2.354824 -12.302145 1.880790849211783e-38 1700951363
1.218665 -3.375267 -11.392832 1.880790849211783e-38 1700951363
1.195559 -3.226253 -11.176815 1.880790849211783e-38 1700951363
1.213475 -3.162656 -11.344311 1.880790849211783e-38 1700951363
1.215557 -3.065290 -11.363774 1.880790849211783e-38 1700951363
1.229076 -2.981273 -11.490157 1.880790849211783e-38 1700951363
1.253757 -2.901383 -11.720891 1.880790849211783e-38 1700951363
1.312691 -2.250631 -12.271840 1.880790849211783e-38 1700951363
1.324184 -2.158359 -12.379285 1.880790849211783e-38 1700951363
1.253951 -2.771693 -11.722702 1.880790849211783e-38 1700951363
1.261593 -2.715844 -11.794141 1.880790849211783e-38 1700951363
1.323130 -2.054923 -12.369429 1.880790849211783e-38 1700951363
1.339963 -1.970330 -12.526801 1.880790849211783e-38 1700951363
1.273053 -2.625521 -11.901280 1.880790849211783e-38 1700951363
1.288201 -2.567633 -12.042892 1.880790849211783e-38 1700951363
1.313997 -1.906314 -12.644503 1.880790849211783e-38 1700951363
1.245804 -2.419670 -11.988285 1.880790849211783e-38 1700951363
1.268047 -2.334974 -12.202325 1.880790849211783e-38 1700951363
1.183730 -3.373638 -11.390956 1.880790849211783e-38 1700951363
1.165510 -3.236426 -11.215625 1.880790849211783e-38 1700951363
1.173723 -3.147811 -11.294654 1.880790849211783e-38 1700951363
1.179689 -3.061158 -11.352065 1.880790849211783e-38 1700951363
1.189037 -2.967839 -11.442019 1.880790849211783e-38 1700951363
1.211707 -2.885436 -11.660174 1.880790849211783e-38 1700951363
1.274658 -2.248836 -12.265950 1.880790849211783e-38 1700951363
1.281754 -2.149819 -12.334229 1.880790849211783e-38 1700951363
1.210070 -2.752308 -11.644416 1.880790849211783e-38 1700951363
1.223299 -2.709821 -11.771725 1.880790849211783e-38 1700951363
1.280508 -2.046432 -12.322237 1.880790849211783e-38 1700951363
1.296622 -1.961922 -12.477307 1.880790849211783e-38 1700951363
1.233752 -2.618298 -11.872311 1.880790849211783e-38 1700951363
1.242911 -2.549245 -11.960448 1.880790849211783e-38 1700951363
1.271171 -1.899315 -12.601972 1.880790849211783e-38 1700951363
1.278809 -1.827377 -12.677686 1.880790849211783e-38 1700951363
1.197850 -2.396083 -11.875090 1.880790849211783e-38 1700951363
1.223417 -2.320140 -12.128550 1.880790849211783e-38 1700951363
1.148907 -3.372278 -11.389880 1.880790849211783e-38 1700951363
1.129163 -3.229230 -11.194145 1.880790849211783e-38 1700951363
1.134500 -3.133577 -11.247055 1.880790849211783e-38 1700951363
1.140074 -3.046803 -11.302320 1.880790849211783e-38 1700951363
1.148453 -2.952236 -11.385381 1.880790849211783e-38 1700951363
1.174758 -2.881080 -11.646169 1.880790849211783e-38 1700951363
1.227134 -2.229712 -12.165396 1.880790849211783e-38 1700951363
1.238257 -2.138952 -12.275673 1.880790849211783e-38 1700951363
1.172017 -2.745451 -11.618995 1.880790849211783e-38 1700951363
1.174864 -2.680331 -11.647216 1.880790849211783e-38 1700951363
1.236252 -2.034769 -12.255789 1.880790849211783e-38 1700951363
1.254929 -1.955601 -12.440952 1.880790849211783e-38 1700951363
1.191566 -2.604367 -11.812790 1.880790849211783e-38 1700951363
1.206702 -2.548968 -11.962844 1.880790849211783e-38 1700951363
1.224817 -1.886468 -12.520479 1.880790849211783e-38 1700951363
1.237213 -1.822436 -12.647197 1.880790849211783e-38 1700951363
1.160214 -2.392339 -11.860091 1.880790849211783e-38 1700951363
1.183241 -2.313120 -12.095475 1.880790849211783e-38 1700951363
1.115020 -3.373702 -11.398105 1.880790849211783e-38 1700951363
1.095711 -3.230158 -11.200715 1.880790849211783e-38 1700951363
1.095533 -3.119225 -11.198896 1.880790849211783e-38 1700951363
1.100010 -3.030352 -11.244664 1.880790849211783e-38 1700951363
1.114161 -2.952373 -11.389319 1.880790849211783e-38 1700951363
1.128930 -2.854033 -11.540292 1.880790849211783e-38 1700951363
1.144724 -3.593363 -11.701753 1.880790849211783e-38 1700951363
1.185992 -2.221386 -12.123602 1.880790849211783e-38 1700951363
1.197047 -2.131506 -12.236605 1.880790849211783e-38 1700951363
1.131131 -2.731352 -11.562791 1.880790849211783e-38 1700951363
1.138906 -2.678390 -11.642268 1.880790849211783e-38 1700951363
1.192057 -2.022510 -12.185605 1.880790849211783e-38 1700951363
1.209840 -1.943454 -12.367381 1.880790849211783e-38 1700951363
1.154208 -2.600480 -11.798695 1.880790849211783e-38 1700951363
1.163867 -2.534271 -11.897429 1.880790849211783e-38 1700951363
1.182803 -1.879714 -12.479280 1.880790849211783e-38 1700951363
1.189861 -1.808445 -12.553750 1.880790849211783e-38 1700951363
1.193178 -1.743696 -12.588747 1.880790849211783e-38 1700951363
1.119211 -2.381212 -11.808352 1.880790849211783e-38 1700951363
1.137882 -2.295216 -12.005339 1.880790849211783e-38 1700951363
1.085355 -3.388418 -11.451148 1.880790849211783e-38 1700951363
1.061660 -3.229344 -11.201147 1.880790849211783e-38 1700951363
1.056684 -3.104327 -11.148646 1.880790849211783e-38 1700951363
1.062636 -3.020525 -11.211453 1.880790849211783e-38 1700951363
1.071936 -2.930850 -11.309574 1.880790849211783e-38 1700951363
1.092311 -2.849308 -11.524537 1.880790849211783e-38 1700951363
1.109024 -3.592050 -11.700874 1.880790849211783e-38 1700951363
1.146611 -2.215949 -12.097440 1.880790849211783e-38 1700951363
1.152038 -2.116624 -12.154698 1.880790849211783e-38 1700951363
1.089828 -2.715338 -11.498340 1.880790849211783e-38 1700951363
1.098025 -2.664401 -11.584825 1.880790849211783e-38 1700951363
1.150615 -2.014303 -12.139685 1.880790849211783e-38 1700951363
1.166010 -1.932636 -12.302111 1.880790849211783e-38 1700951363
1.110186 -2.580872 -11.713133 1.880790849211783e-38 1700951363
1.120044 -2.516436 -11.817133 1.880790849211783e-38 1700951363
1.137471 -1.867094 -12.398982 1.880790849211783e-38 1700951363
1.147233 -1.800972 -12.505389 1.880790849211783e-38 1700951363
1.148638 -1.733782 -12.520699 1.880790849211783e-38 1700951363
1.075879 -2.364262 -11.727598 1.880790849211783e-38 1700951363
1.102255 -2.296436 -12.015101 1.880790849211783e-38 1700951363
1.046825 -3.375558 -11.410897 1.880790849211783e-38 1700951363
1.025505 -3.221906 -11.178491 1.880790849211783e-38 1700951363
1.024557 -3.108886 -11.168158 1.880790849211783e-38 1700951363
1.022147 -3.000939 -11.141890 1.880790849211783e-38 1700951363
1.034537 -2.921574 -11.276952 1.880790849211783e-38 1700951363
1.052913 -2.836821 -11.477255 1.880790849211783e-38 1700951363
1.075184 -3.596916 -11.720020 1.880790849211783e-38 1700951363
1.105626 -2.206978 -12.051855 1.880790849211783e-38 1700951363
1.113543 -2.113148 -12.138151 1.880790849211783e-38 1700951363
1.050748 -2.704026 -11.453657 1.880790849211783e-38 1700951363
1.060126 -2.656997 -11.555883 1.880790849211783e-38 1700951363
1.105746 -1.999384 -12.053160 1.880790849211783e-38 1700951363
1.124968 -1.925901 -12.262691 1.880790849211783e-38 1700951363
1.070936 -2.571462 -11.673712 1.880790849211783e-38 1700951363
1.082439 -2.511890 -11.799107 1.880790849211783e-38 1700951363
1.094924 -1.858359 -12.344331 1.880790849211783e-38 1700951363
1.098594 -1.783251 -12.385707 1.880790849211783e-38 1700951363
1.106040 -1.726245 -12.469656 1.880790849211783e-38 1700951363
1.105679 -1.654053 -12.465587 1.880790849211783e-38 1700951363
1.038465 -2.359628 -11.707798 1.880790849211783e-38 1700951363
1.058508 -2.280270 -11.933764 1.880790849211783e-38 1700951363
1.012237 -3.374998 -11.412107 1.880790849211783e-38 1700951363
0.994766 -3.231588 -11.215135 1.880790849211783e-38 1700951363
0.987336 -3.097801 -11.131368 1.880790849211783e-38 1700951363
0.984127 -2.987549 -11.095193 1.880790849211783e-38 1700951363
0.995765 -2.907684 -11.226393 1.880790849211783e-38 1700951363
1.012007 -2.819308 -11.409506 1.880790849211783e-38 1700951363
1.036790 -3.586396 -11.688922 1.880790849211783e-38 1700951363
1.064419 -2.196958 -12.000406 1.880790849211783e-38 1700951363
1.070863 -2.101244 -12.073059 1.880790849211783e-38 1700951363
1.013668 -2.697291 -11.428238 1.880790849211783e-38 1700951363
1.017324 -2.636406 -11.469449 1.880790849211783e-38 1700951363
1.065960 -1.992973 -12.017778 1.880790849211783e-38 1700951363
1.081886 -1.915115 -12.197330 1.880790849211783e-38 1700951363
1.032227 -2.562781 -11.637466 1.880790849211783e-38 1700951363
1.041468 -2.498981 -11.741660 1.880790849211783e-38 1700951363
1.051984 -1.848334 -12.280973 1.880790849211783e-38 1700951363
1.058434 -1.778546 -12.356279 1.880790849211783e-38 1700951363
1.062160 -1.716119 -12.399776 1.880790849211783e-38 1700951363
1.062904 -1.646040 -12.408463 1.880790849211783e-38 1700951363
0.998887 -2.349602 -11.661118 1.880790849211783e-38 1700951363
1.019428 -2.273396 -11.900919 1.880790849211783e-38 1700951363
0.976798 -3.371490 -11.403246 1.880790849211783e-38 1700951363
0.959015 -3.225123 -11.195642 1.880790849211783e-38 1700951363
0.957211 -3.109013 -11.174591 1.880790849211783e-38 1700951363
0.946456 -2.974338 -11.049034 1.880790849211783e-38 1700951363
0.957132 -2.893267 -11.173668 1.880790849211783e-38 1700951363
0.974861 -2.811434 -11.380631 1.880790849211783e-38 1700951363
1.003349 -3.592901 -11.713205 1.880790849211783e-38 1700951363
1.022748 -2.185264 -11.939669 1.880790849211783e-38 1700951363
1.029465 -2.091127 -12.018087 1.880790849211783e-38 1700951363
0.973281 -2.680998 -11.362190 1.880790849211783e-38 1700951363
0.978037 -2.623823 -11.417709 1.880790849211783e-38 1700951363
1.025818 -1.985442 -11.975516 1.880790849211783e-38 1700951363
1.040972 -1.907561 -12.152417 1.880790849211783e-38 1700951363
0.992390 -2.550616 -11.585271 1.880790849211783e-38 1700951363
1.000422 -2.484998 -11.679031 1.880790849211783e-38 1700951363
1.011489 -1.842044 -12.242288 1.880790849211783e-38 1700951363
1.015318 -1.768361 -12.288634 1.880790849211783e-38 1700951363
1.019901 -1.707980 -12.344097 1.880790849211783e-38 1700951363
1.024598 -1.644627 -12.400959 1.880790849211783e-38 1700951363
0.957619 -2.334737 -11.590284 1.880790849211783e-38 1700951363
0.979449 -2.263954 -11.854500 1.880790849211783e-38 1700951363
0.943618 -3.375832 -11.420827 1.880790849211783e-38 1700951363
0.924514 -3.222568 -11.189611 1.880790849211783e-38 1700951363
0.922550 -3.105788 -11.165836 1.880790849211783e-38 1700951363
0.914781 -2.979714 -11.071815 1.880790849211783e-38 1700951363
0.918110 -2.876595 -11.112101 1.880790849211783e-38 1700951363
0.935555 -2.796548 -11.323246 1.880790849211783e-38 1700951363
0.967552 -3.591163 -11.710508 1.880790849211783e-38 1700951363
0.979808 -2.169922 -11.858852 1.880790849211783e-38 1700951363
0.987575 -2.079248 -11.952849 1.880790849211783e-38 1700951363
0.936621 -2.674175 -11.336150 1.880790849211783e-38 1700951363
0.940840 -2.616150 -11.387210 1.880790849211783e-38 1700951363
0.982939 -1.971881 -11.896738 1.880790849211783e-38 1700951363
0.994483 -1.888882 -12.036469 1.880790849211783e-38 1700951363
0.950867 -2.533087 -11.508574 1.880790849211783e-38 1700951363
0.961976 -2.476708 -11.643023 1.880790849211783e-38 1700951363
0.990638 -1.558478 -12.447283 1.880790849211783e-38 1700951363
0.968640 -1.830852 -12.170877 1.880790849211783e-38 1700951363
0.977495 -1.766994 -12.282139 1.880790849211783e-38 1700951363
0.979060 -1.701712 -12.301805 1.880790849211783e-38 1700951363
0.980765 -1.633919 -12.323227 1.880790849211783e-38 1700951363
0.919768 -2.327424 -11.556804 1.880790849211783e-38 1700951363
0.937811 -2.249847 -11.783517 1.880790849211783e-38 1700951363
0.908118 -3.371933 -11.410427 1.880790849211783e-38 1700951363
0.892929 -3.230407 -11.219574 1.880790849211783e-38 1700951363
0.888102 -3.103109 -11.158933 1.880790849211783e-38 1700951363
0.877591 -2.966888 -11.026854 1.880790849211783e-38 1700951363
0.880927 -2.864677 -11.068769 1.880790849211783e-38 1700951363
0.896828 -2.782364 -11.268574 1.880790849211783e-38 1700951363
0.933063 -3.594378 -11.723860 1.880790849211783e-38 1700951363
0.941115 -2.163204 -11.825027 1.880790849211783e-38 1700951363
0.945537 -2.066172 -11.880588 1.880790849211783e-38 1700951363
0.897192 -2.658660 -11.273142 1.880790849211783e-38 1700951363
0.900089 -2.597672 -11.309547 1.880790849211783e-38 1700951363
0.942337 -1.962060 -11.840384 1.880790849211783e-38 1700951363
0.956738 -1.886046 -12.021337 1.880790849211783e-38 1700951363
0.916182 -2.533166 -11.511746 1.880790849211783e-38 1700951363
0.920489 -2.459692 -11.565863 1.880790849211783e-38 1700951363
0.947758 -1.549755 -12.380524 1.880790849211783e-38 1700951363
0.928855 -1.824814 -12.133595 1.880790849211783e-38 1700951363
0.935141 -1.757023 -12.215714 1.880790849211783e-38 1700951363
0.932633 -1.684874 -12.182948 1.880790849211783e-38 1700951363
0.939666 -1.627118 -12.274824 1.880790849211783e-38 1700951363
0.878884 -2.311579 -11.480830 1.880790849211783e-38 1700951363
0.899786 -2.243658 -11.753867 1.880790849211783e-38 1700951363
0.875087 -3.377285 -11.431231 1.880790849211783e-38 1700951363
0.856620 -3.221132 -11.189994 1.880790849211783e-38 1700951363
0.853977 -3.101416 -11.155470 1.880790849211783e-38 1700951363
0.843021 -2.962288 -11.012348 1.880790849211783e-38 1700951363
0.840494 -2.840863 -10.979342 1.880790849211783e-38 1700951363
0.862900 -2.782564 -11.272036 1.880790849211783e-38 1700951363
0.898615 -3.598042 -11.738574 1.880790849211783e-38 1700951363
0.901083 -2.152779 -11.770811 1.880790849211783e-38 1700951363
0.905286 -2.056147 -11.825725 1.880790849211783e-38 1700951363
0.858319 -2.643662 -11.212188 1.880790849211783e-38 1700951363
0.866236 -2.598453 -11.315614 1.880790849211783e-38 1700951363
0.905769 -1.960213 -11.832024 1.880790849211783e-38 1700951363
0.917976 -1.880919 -11.991482 1.880790849211783e-38 1700951363
0.877406 -2.521522 -11.461529 1.880790849211783e-38 1700951363
0.883653 -2.454280 -11.543132 1.880790849211783e-38 1700951363
0.908008 -1.545654 -12.350555 1.880790849211783e-38 1700951363
0.911706 -1.488406 -12.400867 1.880790849211783e-38 1700951363
0.889660 -1.819500 -12.101001 1.880790849211783e-38 1700951363
0.892444 -1.745575 -12.138867 1.880790849211783e-38 1700951363
0.896468 -1.685966 -12.193602 1.880790849211783e-38 1700951363
0.898480 -1.619613 -12.220971 1.880790849211783e-38 1700951363
0.841771 -2.304774 -11.449621 1.880790849211783e-38 1700951363
0.858462 -2.228414 -11.676649 1.880790849211783e-38 1700951363
0.839501 -3.372833 -11.418746 1.880790849211783e-38 1700951363
0.824354 -3.226943 -11.212721 1.880790849211783e-38 1700951363
0.819997 -3.100154 -11.153455 1.880790849211783e-38 1700951363
0.813439 -2.975577 -11.064256 1.880790849211783e-38 1700951363
0.807102 -2.839887 -10.978051 1.880790849211783e-38 1700951363
0.821911 -2.759094 -11.179488 1.880790849211783e-38 1700951363
0.861620 -3.591415 -11.719605 1.880790849211783e-38 1700951363
0.863288 -2.147076 -11.742286 1.880790849211783e-38 1700951363
0.865680 -2.046834 -11.774826 1.880790849211783e-38 1700951363
0.821272 -2.633308 -11.170800 1.880790849211783e-38 1700951363
0.826674 -2.581488 -11.244276 1.880790849211783e-38 1700951363
0.864549 -1.947748 -11.759445 1.880790849211783e-38 1700951363
0.877612 -1.871967 -11.937115 1.880790849211783e-38 1700951363
0.834924 -2.497847 -11.356487 1.880790849211783e-38 1700951363
0.845034 -2.443282 -11.494005 1.880790849211783e-38 1700951363
0.868355 -1.541394 -12.319196 1.880790849211783e-38 1700951363
0.870672 -1.482227 -12.352065 1.880790849211783e-38 1700951363
0.848284 -1.809101 -12.034453 1.880790849211783e-38 1700951363
0.851320 -1.736378 -12.077531 1.880790849211783e-38 1700951363
0.854989 -1.676749 -12.129580 1.880790849211783e-38 1700951363
0.857015 -1.610960 -12.158319 1.880790849211783e-38 1700951363
0.804542 -2.297082 -11.413891 1.880790849211783e-38 1700951363
0.819896 -2.219359 -11.631727 1.880790849211783e-38 1700951363
0.805608 -3.375134 -11.429018 1.880790849211783e-38 1700951363
0.792433 -3.234700 -11.242113 1.880790849211783e-38 1700951363
0.788195 -3.107409 -11.181982 1.880790849211783e-38 1700951363
0.779931 -2.975065 -11.064753 1.880790849211783e-38 1700951363
0.770816 -2.828249 -10.935437 1.880790849211783e-38 1700951363
0.786888 -2.754534 -11.163438 1.880790849211783e-38 1700951363
0.824238 -3.582582 -11.693319 1.880790849211783e-38 1700951363
0.822949 -2.134316 -11.675037 1.880790849211783e-38 1700951363
0.826340 -2.037408 -11.723145 1.880790849211783e-38 1700951363
0.784281 -2.622286 -11.126459 1.880790849211783e-38 1700951363
0.790029 -2.572603 -11.208009 1.880790849211783e-38 1700951363
0.824004 -1.935825 -11.689995 1.880790849211783e-38 1700951363
0.834569 -1.856317 -11.839888 1.880790849211783e-38 1700951363
0.799948 -2.495598 -11.348722 1.880790849211783e-38 1700951363
0.805363 -2.428203 -11.425550 1.880790849211783e-38 1700951363
0.826444 -1.532581 -12.251310 1.880790849211783e-38 1700951363
0.829050 -1.474465 -12.289944 1.880790849211783e-38 1700951363
0.808744 -1.801881 -11.988920 1.880790849211783e-38 1700951363
0.810528 -1.727082 -12.015370 1.880790849211783e-38 1700951363
0.813629 -1.666970 -12.061341 1.880790849211783e-38 1700951363
0.816397 -1.603214 -12.102378 1.880790849211783e-38 1700951363
0.766364 -2.285897 -11.360673 1.880790849211783e-38 1700951363
0.781988 -2.211374 -11.592288 1.880790849211783e-38 1700951363
0.771819 -3.378129 -11.441538 1.880790849211783e-38 1700951363
0.755545 -3.221996 -11.200290 1.880790849211783e-38 1700951363
0.752826 -3.100652 -11.159990 1.880790849211783e-38 1700951363
0.746352 -2.974248 -11.064014 1.880790849211783e-38 1700951363
0.732868 -2.809221 -10.864126 1.880790849211783e-38 1700951363
0.748825 -2.738477 -11.100671 1.880790849211783e-38 1700951363
0.789697 -3.720208 -11.706569 1.880790849211783e-38 1700951363
0.791974 -3.596233 -11.740319 1.880790849211783e-38 1700951363
0.784468 -2.125467 -11.629049 1.880790849211783e-38 1700951363
0.789805 -2.034383 -11.708176 1.880790849211783e-38 1700951363
0.745766 -2.604980 -11.055328 1.880790849211783e-38 1700951363
0.752875 -2.561216 -11.160723 1.880790849211783e-38 1700951363
0.787817 -1.933553 -11.678705 1.880790849211783e-38 1700951363
0.795359 -1.848190 -11.790504 1.880790849211783e-38 1700951363
0.762418 -2.484846 -11.302179 1.880790849211783e-38 1700951363
0.766236 -2.413511 -11.358779 1.880790849211783e-38 1700951363
0.784993 -1.523852 -12.183950 1.880790849211783e-38 1700951363
0.787269 -1.465694 -12.219267 1.880790849211783e-38 1700951363
0.785615 -1.390181 -12.193597 1.880790849211783e-38 1700951363
0.769372 -1.794396 -11.941493 1.880790849211783e-38 1700951363
0.771759 -1.721446 -11.978543 1.880790849211783e-38 1700951363
0.776283 -1.664899 -12.048759 1.880790849211783e-38 1700951363
0.776501 -1.596241 -12.052134 1.880790849211783e-38 1700951363
0.727534 -2.271652 -11.292126 1.880790849211783e-38 1700951363
0.744482 -2.203856 -11.555178 1.880790849211783e-38 1700951363
0.739296 -3.387239 -11.474675 1.880790849211783e-38 1700951363
0.724413 -3.233831 -11.243670 1.880790849211783e-38 1700951363
0.720044 -3.104446 -11.175869 1.880790849211783e-38 1700951363
0.709575 -2.960045 -11.013371 1.880790849211783e-38 1700951363
0.700527 -2.810940 -10.872935 1.880790849211783e-38 1700951363
0.711796 -2.724902 -11.047841 1.880790849211783e-38 1700951363
0.753847 -3.717546 -11.700519 1.880790849211783e-38 1700951363
0.755765 -3.592449 -11.730296 1.880790849211783e-38 1700951363
0.746801 -2.118121 -11.591162 1.880790849211783e-38 1700951363
0.749862 -2.021904 -11.638677 1.880790849211783e-38 1700951363
0.711816 -2.602774 -11.048163 1.880790849211783e-38 1700951363
0.715829 -2.549171 -11.110445 1.880790849211783e-38 1700951363
0.747178 -1.919646 -11.597015 1.880790849211783e-38 1700951363
0.756122 -1.839254 -11.735827 1.880790849211783e-38 1700951363
0.725021 -2.473565 -11.253105 1.880790849211783e-38 1700951363
0.731525 -2.412029 -11.354062 1.880790849211783e-38 1700951363
0.744576 -1.516377 -12.126485 1.880790849211783e-38 1700951363
0.746478 -1.458005 -12.157466 1.880790849211783e-38 1700951363
0.744637 -1.382381 -12.127479 1.880790849211783e-38 1700951363
0.729232 -1.784305 -11.876591 1.880790849211783e-38 1700951363
0.732152 -1.713303 -11.924145 1.880790849211783e-38 1700951363
0.734618 -1.652917 -11.964315 1.880790849211783e-38 1700951363
0.734039 -1.583060 -11.954885 1.880790849211783e-38 1700951363
0.694263 -2.274226 -11.307063 1.880790849211783e-38 1700951363
0.707184 -2.196255 -11.517509 1.880790849211783e-38 1700951363
0.703003 -3.379139 -11.449409 1.880790849211783e-38 1700951363
0.688048 -3.222345 -11.205858 1.880790849211783e-38 1700951363
0.687187 -3.108289 -11.191824 1.880790849211783e-38 1700951363
0.676219 -2.959435 -11.013191 1.880790849211783e-38 1700951363
0.666763 -2.806856 -10.859200 1.880790849211783e-38 1700951363
0.674480 -2.708857 -10.984870 1.880790849211783e-38 1700951363
0.718744 -3.718510 -11.705775 1.880790849211783e-38 1700951363
0.719667 -3.588861 -11.720806 1.880790849211783e-38 1700951363
0.707204 -2.104321 -11.517829 1.880790849211783e-38 1700951363
0.712572 -2.015715 -11.605250 1.880790849211783e-38 1700951363
0.675516 -2.591348 -11.001750 1.880790849211783e-38 1700951363
0.678877 -2.536309 -11.056481 1.880790849211783e-38 1700951363
0.708607 -1.909960 -11.540687 1.880790849211783e-38 1700951363
0.718885 -1.834556 -11.708072 1.880790849211783e-38 1700951363
0.688720 -2.465114 -11.216789 1.880790849211783e-38 1700951363
0.693751 -2.399819 -11.298734 1.880790849211783e-38 1700951363
0.704054 -1.507928 -12.061094 1.880790849211783e-38 1700951363
0.707985 -1.454261 -12.128440 1.880790849211783e-38 1700951363
0.704739 -1.375903 -12.072834 1.880790849211783e-38 1700951363
0.688995 -1.772948 -11.803130 1.880790849211783e-38 1700951363
0.691894 -1.702741 -11.852776 1.880790849211783e-38 1700951363
0.696421 -1.647925 -11.930338 1.880790849211783e-38 1700951363
0.697039 -1.580926 -11.940925 1.880790849211783e-38 1700951363
0.654911 -2.256154 -11.219238 1.880790849211783e-38 1700951363
0.668170 -2.182294 -11.446365 1.880790849211783e-38 1700951363
0.667562 -3.374560 -11.435958 1.880790849211783e-38 1700951363
0.655504 -3.228529 -11.229393 1.880790849211783e-38 1700951363
0.653894 -3.110501 -11.201814 1.880790849211783e-38 1700951363
0.646877 -2.977281 -11.081605 1.880790849211783e-38 1700951363
0.636587 -2.818271 -10.905332 1.880790849211783e-38 1700951363
0.638689 -2.697632 -10.941328 1.880790849211783e-38 1700951363
0.682033 -3.710875 -11.683851 1.880790849211783e-38 1700951363
0.685105 -3.593012 -11.736483 1.880790849211783e-38 1700951363
0.669456 -2.094911 -11.468399 1.880790849211783e-38 1700951363
0.672902 -2.001839 -11.527440 1.880790849211783e-38 1700951363
0.641350 -2.587388 -10.986923 1.880790849211783e-38 1700951363
0.644904 -2.533859 -11.047797 1.880790849211783e-38 1700951363
0.671178 -1.902536 -11.497907 1.880790849211783e-38 1700951363
0.679911 -1.824736 -11.647509 1.880790849211783e-38 1700951363
0.650009 -2.446754 -11.135257 1.880790849211783e-38 1700951363
0.657311 -2.391235 -11.260351 1.880790849211783e-38 1700951363
0.664128 -1.499919 -11.999092 1.880790849211783e-38 1700951363
0.670122 -1.451486 -12.107373 1.880790849211783e-38 1700951363
0.664957 -1.368971 -12.014064 1.880790849211783e-38 1700951363
0.673728 -1.302298 -12.172533 1.880790849211783e-38 1700951363
0.651758 -1.768510 -11.775599 1.880790849211783e-38 1700951363
0.653180 -1.695053 -11.801282 1.880790849211783e-38 1700951363
0.656453 -1.637987 -11.860419 1.880790849211783e-38 1700951363
0.656941 -1.571166 -11.869241 1.880790849211783e-38 1700951363
0.617723 -2.243990 -11.160664 1.880790849211783e-38 1700951363
0.631575 -2.175168 -11.410945 1.880790849211783e-38 1700951363
0.634916 -3.384406 -11.471292 1.880790849211783e-38 1700951363
0.621747 -3.229121 -11.233376 1.880790849211783e-38 1700951363
0.619966 -3.109793 -11.201185 1.880790849211783e-38 1700951363
0.611568 -2.968134 -11.049454 1.880790849211783e-38 1700951363
0.603082 -2.815413 -10.896141 1.880790849211783e-38 1700951363
0.604499 -2.692342 -10.921746 1.880790849211783e-38 1700951363
0.649381 -3.725733 -11.732644 1.880790849211783e-38 1700951363
0.647296 -3.579692 -11.694979 1.880790849211783e-38 1700951363
0.633731 -2.091170 -11.449882 1.880790849211783e-38 1700951363
0.637265 -1.999118 -11.513746 1.880790849211783e-38 1700951363
0.604432 -2.571314 -10.920540 1.880790849211783e-38 1700951363
0.607395 -2.516518 -10.974072 1.880790849211783e-38 1700951363
0.634730 -1.897251 -11.467931 1.880790849211783e-38 1700951363
0.640636 -1.813011 -11.574649 1.880790849211783e-38 1700951363
0.615106 -2.441530 -11.113391 1.880790849211783e-38 1700951363
0.621932 -2.385808 -11.236719 1.880790849211783e-38 1700951363
0.627238 -1.498250 -11.987690 1.880790849211783e-38 1700951363
0.629173 -1.441338 -12.024677 1.880790849211783e-38 1700951363
0.626608 -1.364372 -11.975651 1.880790849211783e-38 1700951363
0.634769 -1.297711 -12.131630 1.880790849211783e-38 1700951363
0.612446 -1.757620 -11.704992 1.880790849211783e-38 1700951363
0.615553 -1.689478 -11.764382 1.880790849211783e-38 1700951363
0.641524 -1.256308 -12.260736 1.880790849211783e-38 1700951363
0.617304 -1.629079 -11.797834 1.880790849211783e-38 1700951363
0.619465 -1.566927 -11.839144 1.880790849211783e-38 1700951363
0.582323 -2.237318 -11.129290 1.880790849211783e-38 1700951363
0.595692 -2.169831 -11.384794 1.880790849211783e-38 1700951363
0.598741 -3.375531 -11.443069 1.880790849211783e-38 1700951363
0.589772 -3.239595 -11.271643 1.880790849211783e-38 1700951363
0.588339 -3.121245 -11.244259 1.880790849211783e-38 1700951363
0.578853 -2.971284 -11.062978 1.880790849211783e-38 1700951363
0.571338 -2.820951 -10.919348 1.880790849211783e-38 1700951363
0.568969 -2.680155 -10.874075 1.880790849211783e-38 1700951363
0.612926 -3.719265 -11.714176 1.880790849211783e-38 1700951363
0.614754 -3.595678 -11.749114 1.880790849211783e-38 1700951363
0.594094 -2.073367 -11.354248 1.880790849211783e-38 1700951363
0.599611 -1.989411 -11.459700 1.880790849211783e-38 1700951363
0.567473 -2.553223 -10.845467 1.880790849211783e-38 1700951363
0.572535 -2.508806 -10.942217 1.880790849211783e-38 1700951363
0.595949 -1.884003 -11.389705 1.880790849211783e-38 1700951363
0.605139 -1.811260 -11.565347 1.880790849211783e-38 1700951363
0.580728 -2.437930 -11.098804 1.880790849211783e-38 1700951363
0.585012 -2.373523 -11.180675 1.880790849211783e-38 1700951363
0.586043 -1.485475 -11.887299 1.880790849211783e-38 1700951363
0.589133 -1.432165 -11.949982 1.880790849211783e-38 1700951363
0.585974 -1.353938 -11.885889 1.880790849211783e-38 1700951363
0.596219 -1.293455 -12.093700 1.880790849211783e-38 1700951363
0.576321 -1.755114 -11.690094 1.880790849211783e-38 1700951363
0.577474 -1.681911 -11.713483 1.880790849211783e-38 1700951363
0.599627 -1.246085 -12.162828 1.880790849211783e-38 1700951363
0.580398 -1.625372 -11.772791 1.880790849211783e-38 1700951363
0.581584 -1.561090 -11.796848 1.880790849211783e-38 1700951363
0.545533 -2.224170 -11.065583 1.880790849211783e-38 1700951363
0.556078 -2.149431 -11.279484 1.880790849211783e-38 1700951363
0.564917 -3.379647 -11.458776 1.880790849211783e-38 1700951363
0.557729 -3.250976 -11.312974 1.880790849211783e-38 1700951363
0.551616 -3.105424 -11.188980 1.880790849211783e-38 1700951363
0.544644 -2.966686 -11.047550 1.880790849211783e-38 1700951363
0.538772 -2.822872 -10.928457 1.880790849211783e-38 1700951363
0.534701 -2.672795 -10.845874 1.880790849211783e-38 1700951363
0.576837 -3.714373 -11.700562 1.880790849211783e-38 1700951363
0.578753 -3.592163 -11.739426 1.880790849211783e-38 1700951363
0.559659 -2.072664 -11.352133 1.880790849211783e-38 1700951363
0.560393 -1.973017 -11.367006 1.880790849211783e-38 1700951363
0.532795 -2.543830 -10.807223 1.880790849211783e-38 1700951363
0.535352 -2.489364 -10.859087 1.880790849211783e-38 1700951363
0.561316 -1.883057 -11.385729 1.880790849211783e-38 1700951363
0.568077 -1.804331 -11.522873 1.880790849211783e-38 1700951363
0.542393 -2.416273 -11.001896 1.880790849211783e-38 1700951363
0.547715 -2.358127 -11.109854 1.880790849211783e-38 1700951363
0.549264 -1.482979 -11.869033 1.880790849211783e-38 1700951363
0.550670 -1.425899 -11.899410 1.880790849211783e-38 1700951363
0.548241 -1.349307 -11.846940 1.880790849211783e-38 1700951363
0.558263 -1.290040 -12.063504 1.880790849211783e-38 1700951363
0.537479 -1.743495 -11.614374 1.880790849211783e-38 1700951363
0.541022 -1.678431 -11.690928 1.880790849211783e-38 1700951363
0.561912 -1.243806 -12.142337 1.880790849211783e-38 1700951363
0.539925 -1.610567 -11.667237 1.880790849211783e-38 1700951363
0.543202 -1.553086 -11.738054 1.880790849211783e-38 1700951363
0.509325 -2.211875 -11.006000 1.880790849211783e-38 1700951363
0.520001 -2.140966 -11.236687 1.880790849211783e-38 1700951363
0.529761 -3.375866 -11.447607 1.880790849211783e-38 1700951363
0.519489 -3.225408 -11.225619 1.880790849211783e-38 1700951363
0.519042 -3.112470 -11.215981 1.880790849211783e-38 1700951363
0.510793 -2.963616 -11.037709 1.880790849211783e-38 1700951363
0.503949 -2.812487 -10.889820 1.880790849211783e-38 1700951363
0.504140 -2.684258 -10.893958 1.880790849211783e-38 1700951363
0.541763 -3.715866 -11.706952 1.880790849211783e-38 1700951363
0.544196 -3.597792 -11.759516 1.880790849211783e-38 1700951363
0.521259 -2.056252 -11.263867 1.880790849211783e-38 1700951363
0.524330 -1.966350 -11.330233 1.880790849211783e-38 1700951363
0.497697 -2.531106 -10.754716 1.880790849211783e-38 1700951363
0.501233 -2.482599 -10.831136 1.880790849211783e-38 1700951363
0.522370 -1.866606 -11.287890 1.880790849211783e-38 1700951363
0.530958 -1.796334 -11.473456 1.880790849211783e-38 1700951363
0.507906 -2.410091 -10.975328 1.880790849211783e-38 1700951363
0.512787 -2.351622 -11.080803 1.880790849211783e-38 1700951363
0.509448 -1.471378 -11.777777 1.880790849211783e-38 1700951363
0.512405 -1.419325 -11.846151 1.880790849211783e-38 1700951363
0.510120 -1.343018 -11.793314 1.880790849211783e-38 1700951363
0.521019 -1.287919 -12.045294 1.880790849211783e-38 1700951363
0.500621 -1.737157 -11.573722 1.880790849211783e-38 1700951363
0.503713 -1.671638 -11.645185 1.880790849211783e-38 1700951363
0.522942 -1.238253 -12.089755 1.880790849211783e-38 1700951363
0.523049 -1.159332 -12.092214 1.880790849211783e-38 1700951363
0.505336 -1.612485 -11.682712 1.880790849211783e-38 1700951363
0.505083 -1.544781 -11.676859 1.880790849211783e-38 1700951363
0.473487 -2.199603 -10.946413 1.880790849211783e-38 1700951363
0.484859 -2.135465 -11.209325 1.880790849211783e-38 1700951363
0.496693 -3.385818 -11.482903 1.880790849211783e-38 1700951363
0.487043 -3.234796 -11.259814 1.880790849211783e-38 1700951363
0.486420 -3.120214 -11.245406 1.880790849211783e-38 1700951363
0.477901 -2.966099 -11.048446 1.880790849211783e-38 1700951363
0.473228 -2.825172 -10.940413 1.880790849211783e-38 1700951363
0.468832 -2.670305 -10.838796 1.880790849211783e-38 1700951363
0.507683 -3.724892 -11.736975 1.880790849211783e-38 1700951363
0.507690 -3.590462 -11.737142 1.880790849211783e-38 1700951363
0.485893 -2.050379 -11.233215 1.880790849211783e-38 1700951363
0.489232 -1.962647 -11.310423 1.880790849211783e-38 1700951363
0.464868 -2.528985 -10.747155 1.880790849211783e-38 1700951363
0.467027 -2.474454 -10.797061 1.880790849211783e-38 1700951363
0.486719 -1.860474 -11.252323 1.880790849211783e-38 1700951363
0.491792 -1.779833 -11.369596 1.880790849211783e-38 1700951363
0.471764 -2.394672 -10.906584 1.880790849211783e-38 1700951363
0.478096 -2.345398 -11.052970 1.880790849211783e-38 1700951363
0.474052 -1.471768 -11.782377 1.880790849211783e-38 1700951363
0.475997 -1.417297 -11.830714 1.880790849211783e-38 1700951363
0.472380 -1.336871 -11.740813 1.880790849211783e-38 1700951363
0.481419 -1.279223 -11.965469 1.880790849211783e-38 1700951363
0.463125 -1.727493 -11.510781 1.880790849211783e-38 1700951363
0.466798 -1.665241 -11.602085 1.880790849211783e-38 1700951363
0.483914 -1.231721 -12.027494 1.880790849211783e-38 1700951363
0.484920 -1.155379 -12.052498 1.880790849211783e-38 1700951363
0.468239 -1.606095 -11.637882 1.880790849211783e-38 1700951363
0.467478 -1.536931 -11.618984 1.880790849211783e-38 1700951363
0.439745 -2.195966 -10.929685 1.880790849211783e-38 1700951363
0.450366 -2.132213 -11.193664 1.880790849211783e-38 1700951363
0.460941 -3.377612 -11.456518 1.880790849211783e-38 1700951363
0.453236 -3.235878 -11.265000 1.880790849211783e-38 1700951363
0.450642 -3.107371 -11.200529 1.880790849211783e-38 1700951363
0.447544 -2.985879 -11.123525 1.880790849211783e-38 1700951363
0.481213 -3.924989 -11.960350 1.880790849211783e-38 1700951363
0.439754 -2.822104 -10.929911 1.880790849211783e-38 1700951363
0.437187 -2.676695 -10.866101 1.880790849211783e-38 1700951363
0.471876 -3.721669 -11.728295 1.880790849211783e-38 1700951363
0.473143 -3.596937 -11.759789 1.880790849211783e-38 1700951363
0.449456 -2.038778 -11.171062 1.880790849211783e-38 1700951363
0.453146 -1.954131 -11.262759 1.880790849211783e-38 1700951363
0.430133 -2.515406 -10.690795 1.880790849211783e-38 1700951363
0.432282 -2.462029 -10.744194 1.880790849211783e-38 1700951363
0.450423 -1.850777 -11.195086 1.880790849211783e-38 1700951363
0.457407 -1.779466 -11.368679 1.880790849211783e-38 1700951363
0.437609 -2.387789 -10.876606 1.880790849211783e-38 1700951363
0.442136 -2.331555 -10.989116 1.880790849211783e-38 1700951363
0.436177 -1.463921 -11.720928 1.880790849211783e-38 1700951363
0.437330 -1.407695 -11.751935 1.880790849211783e-38 1700951363
0.435806 -1.333316 -11.710962 1.880790849211783e-38 1700951363
0.443891 -1.275093 -11.928232 1.880790849211783e-38 1700951363
0.427553 -1.724054 -11.489206 1.880790849211783e-38 1700951363
0.427497 -1.648629 -11.487690 1.880790849211783e-38 1700951363
0.443679 -1.220829 -11.922526 1.880790849211783e-38 1700951363
0.445137 -1.146543 -11.961720 1.880790849211783e-38 1700951363
0.430797 -1.597421 -11.576376 1.880790849211783e-38 1700951363
0.431144 -1.532350 -11.585706 1.880790849211783e-38 1700951363
0.404336 -2.182779 -10.865321 1.880790849211783e-38 1700951363
0.413250 -2.115050 -11.104857 1.880790849211783e-38 1700951363
0.426284 -3.376803 -11.455112 1.880790849211783e-38 1700951363
0.419315 -3.236310 -11.267816 1.880790849211783e-38 1700951363
