# .PCD v0.7 - Point Cloud Data file format
VERSION 0.7
FIELDS x y z rgb label
SIZE 4 4 4 4 4
TYPE F F F F U
COUNT 1 1 1 1 1
WIDTH 1523
HEIGHT 1
VIEWPOINT 0 0 0 1 0 0 0
POINTS 1523
DATA ascii
-0.333189 -2.293428 -10.924518
-0.393650 -1.487773 -11.959844
-0.395250 -1.420021 -12.036484
-0.418253 -1.366366 -12.116030
-0.397254 -1.302161 -12.207819
-0.365612 -1.769491 -11.670350
-0.399280 -1.674841 -11.725257
-0.421101 -1.254438 -12.247082
-0.401758 -1.626031 -11.802541
-0.376159 -1.572260 -11.875482
-0.370323 -2.219524 -11.060798
-0.375946 -2.134289 -11.189031
-0.386042 -3.422058 -11.573394
-0.387954 -3.285204 -11.457573
-0.376405 -3.132218 -11.317734
-0.364313 -2.990082 -11.183041
-0.402853 -3.973526 -12.106566
-0.369358 -2.849931 -11.043023
-0.353987 -2.667308 -10.858291
-0.382716 -3.786132 -11.934692
-0.387572 -3.577414 -11.750863
-0.365930 -2.048607 -11.275891
-0.386043 -1.966817 -11.376072
-0.353880 -2.523697 -10.735462
-0.365478 -2.454173 -10.748227
-0.379786 -1.893409 -11.473981
-0.377981 -1.805444 -11.555587
-0.358190 -2.387417 -10.872231
-0.362847 -2.324681 -10.943914
-0.432720 -1.490541 -12.016178
-0.443066 -1.447578 -12.082200
-0.437166 -1.385357 -12.146647
-0.462140 -1.305828 -12.262259
-0.421113 -1.735464 -11.694733
-0.410678 -1.673338 -11.779702
-0.450567 -1.626866 -11.833332
-0.433119 -1.580487 -11.912588
-0.409391 -2.222142 -11.094357
-0.413245 -2.140313 -11.210913
-0.418373 -3.402011 -11.547876
-0.428771 -3.291172 -11.454380
-0.390467 -3.147479 -11.313658
-0.413508 -2.977980 -11.161709
-0.427761 -3.978122 -12.118692
-0.401348 -2.847566 -11.035739
-0.391733 -2.681432 -10.878091
-0.415544 -3.796398 -11.922228
-0.434177 -3.595623 -11.737110
-0.422606 -2.063194 -11.321519
-0.422140 -1.991127 -11.421742
-0.395954 -2.512289 -10.744750
-0.401875 -2.492717 -10.794339
-0.435154 -1.894913 -11.521583
-0.429364 -1.817686 -11.607581
-0.405286 -2.397286 -10.888011
-0.403874 -2.326829 -10.961870
-0.473419 -1.502263 -12.054093
-0.481319 -1.452995 -12.123990
-0.506256 -1.394293 -12.184781
-0.490315 -1.327527 -12.319877
-0.450458 -1.759390 -11.730736
-0.481302 -1.700013 -11.812848
-0.461212 -1.641841 -11.869967
-0.468083 -1.593943 -11.968411
-0.423989 -2.253248 -11.144761
-0.454323 -2.137528 -11.261936
-0.449921 -3.428786 -11.577551
-0.446812 -3.301556 -11.466540
-0.444437 -3.132851 -11.334481
-0.448574 -3.014607 -11.183183
-0.425833 -2.859056 -11.042340
-0.427493 -2.672385 -10.876863
-0.477876 -3.799840 -11.934772
-0.449007 -3.596764 -11.756707
-0.449259 -2.068719 -11.343163
-0.443057 -1.991179 -11.457172
-0.422572 -2.517724 -10.775895
-0.428367 -2.489265 -10.832841
-0.452197 -1.907112 -11.534272
-0.462414 -1.823353 -11.646345
-0.428940 -2.395317 -10.936806
-0.419587 -2.360042 -11.005595
-0.508588 -1.508563 -12.111475
-0.515316 -1.483034 -12.156979
-0.515531 -1.389898 -12.254512
-0.531919 -1.319681 -12.335590
-0.493766 -1.765644 -11.796509
-0.496724 -1.694009 -11.865012
-0.501901 -1.639273 -11.917205
-0.509426 -1.593436 -12.005167
-0.466683 -2.231126 -11.182593
-0.492796 -2.161517 -11.306562
-0.479634 -3.412834 -11.582569
-0.478166 -3.310760 -11.450661
-0.480682 -3.152279 -11.334758
-0.462236 -2.997623 -11.200745
-0.462406 -2.851185 -11.037451
-0.470882 -2.685510 -10.883054
-0.500039 -3.776440 -11.940425
-0.505911 -3.604712 -11.744561
-0.490595 -2.080365 -11.395456
-0.480502 -2.007764 -11.487269
-0.445423 -2.536283 -10.804624
-0.467090 -2.505904 -10.867102
-0.472352 -1.919958 -11.569340
-0.491687 -1.843030 -11.705060
-0.460175 -2.401686 -10.962289
-0.455709 -2.354623 -11.054479
-0.545755 -1.524074 -12.167841
-0.550292 -1.467458 -12.228065
-0.566515 -1.418957 -12.299455
-0.522245 -1.770856 -11.810596
-0.565645 -1.722507 -11.910398
-0.544333 -1.653053 -11.974273
-0.553479 -1.580040 -12.053154
-0.503996 -2.281197 -11.222355
-0.516699 -2.149720 -11.352877
-0.531682 -3.416057 -11.580367
-0.525339 -3.288940 -11.458080
-0.505644 -3.141192 -11.326350
-0.519806 -2.992139 -11.205269
-0.501649 -2.852910 -11.055416
-0.503946 -2.682017 -10.883934
-0.540738 -3.780690 -11.931672
-0.529344 -3.612453 -11.755555
-0.534338 -2.094663 -11.418367
-0.512172 -1.992908 -11.534001
-0.495176 -2.553133 -10.842430
-0.488015 -2.517135 -10.912723
-0.513343 -1.922994 -11.630899
-0.539546 -1.830426 -11.763102
-0.476304 -2.424776 -11.016005
-0.500331 -2.343790 -11.093059
-0.583847 -1.518361 -12.210314
-0.605878 -1.482927 -12.271154
-0.595302 -1.388249 -12.352836
-0.575276 -1.797685 -11.868787
-0.585583 -1.725096 -11.939996
-0.592281 -1.656474 -12.019541
-0.568907 -1.587453 -12.095118
-0.543997 -2.278535 -11.247825
-0.542860 -2.161814 -11.357818
-0.559392 -3.389968 -11.617753
-0.565347 -3.308842 -11.475894
-0.527268 -3.143232 -11.325383
-0.536346 -3.003644 -11.194511
-0.544061 -2.862750 -11.040079
-0.533183 -2.694314 -10.885550
-0.592369 -3.787127 -11.965362
-0.573650 -3.592098 -11.758037
-0.546702 -2.093680 -11.471846
-0.554813 -2.005732 -11.562658
-0.536167 -2.550826 -10.883460
-0.537300 -2.498558 -10.940547
-0.559510 -1.939266 -11.678901
-0.551002 -1.838960 -11.779828
-0.517767 -2.411721 -11.033892
-0.535213 -2.362004 -11.135848
-0.625060 -1.534423 -12.259134
-0.632618 -1.471230 -12.305128
-0.633493 -1.416982 -12.385868
-0.602077 -1.779329 -11.906062
-0.624480 -1.726883 -12.011104
-0.623618 -1.671645 -12.087363
-0.640440 -1.610756 -12.150123
-0.567836 -2.262900 -11.298737
-0.589734 -2.166342 -11.419859
-0.601444 -3.432328 -11.597298
-0.579239 -3.285787 -11.509718
-0.584580 -3.148944 -11.345177
-0.589155 -3.006355 -11.212617
-0.573812 -2.850450 -11.061385
-0.552436 -2.682862 -10.905128
-0.613319 -3.779141 -11.942672
-0.599341 -3.604015 -11.762886
-0.583025 -2.096165 -11.498969
-0.579745 -2.026505 -11.607935
-0.555938 -2.565333 -10.897875
-0.568297 -2.511608 -10.991062
-0.599464 -1.925476 -11.724176
-0.607037 -1.842758 -11.840999
-0.571176 -2.440458 -11.095271
-0.583612 -2.377770 -11.179892
-0.664193 -1.524785 -12.306319
-0.669269 -1.482186 -12.352595
-0.676753 -1.414152 -12.438325
-0.645764 -1.827441 -11.958512
-0.644014 -1.742586 -12.034955
-0.653377 -1.683432 -12.121399
-0.661465 -1.622027 -12.191547
-0.606980 -2.268126 -11.331101
-0.623266 -2.177134 -11.465924
-0.628695 -3.421640 -11.591299
-0.633373 -3.301632 -11.502229
-0.612169 -3.152839 -11.336718
-0.624074 -3.005892 -11.212594
-0.604513 -2.856531 -11.052051
-0.605086 -2.693579 -10.909564
-0.648767 -3.783468 -11.953229
-0.640697 -3.609876 -11.796293
-0.641748 -2.108618 -11.552351
-0.636645 -2.032972 -11.642686
-0.589895 -2.573458 -10.941887
-0.615647 -2.540838 -11.019098
-0.637340 -1.936869 -11.743197
-0.650388 -1.854270 -11.878694
-0.614958 -2.437376 -11.118776
-0.609767 -2.392432 -11.214909
-0.714343 -1.544803 -12.341581
-0.706433 -1.485145 -12.389782
-0.678359 -1.799533 -11.981152
-0.711155 -1.746519 -12.079352
-0.701920 -1.682075 -12.154534
-0.695568 -1.621569 -12.240778
-0.659274 -2.281899 -11.380411
-0.664080 -2.192028 -11.502685
-0.659393 -3.414673 -11.618049
-0.654716 -3.300869 -11.494494
-0.640492 -3.146482 -11.347587
-0.631475 -3.020453 -11.234682
-0.637586 -2.852816 -11.078381
-0.613709 -2.687271 -10.894397
-0.670265 -3.601306 -11.768957
-0.661489 -2.117601 -11.594574
-0.663996 -2.037271 -11.687653
-0.627727 -2.583426 -10.992993
-0.627607 -2.524488 -11.041369
-0.680491 -1.951331 -11.792536
-0.682464 -1.849682 -11.911115
-0.645511 -2.460215 -11.169840
-0.653420 -2.372655 -11.255314
-0.766165 -1.555892 -12.386625
-0.757031 -1.475940 -12.461659
-0.722754 -1.817743 -12.045434
-0.731090 -1.744206 -12.138648
-0.724794 -1.671115 -12.193096
-0.765818 -1.620459 -12.283728
-0.690223 -2.291358 -11.403978
-0.693140 -2.209944 -11.539135
-0.702262 -3.427439 -11.631966
-0.686085 -3.291166 -11.514791
-0.667864 -3.135123 -11.354049
-0.675471 -3.016420 -11.225180
-0.678506 -2.859103 -11.086455
-0.659007 -2.678551 -10.906273
-0.713809 -3.624080 -11.806728
-0.700282 -2.119426 -11.644391
-0.699000 -2.050220 -11.754687
-0.680071 -2.606658 -11.016203
-0.685866 -2.540154 -11.096921
-0.714215 -1.985903 -11.844963
-0.736959 -1.862831 -11.959938
-0.669177 -2.456594 -11.193577
-0.688416 -2.416379 -11.275915
-0.778666 -1.558663 -12.433522
-0.791748 -1.483906 -12.502788
-0.760226 -1.829567 -12.092921
-0.769266 -1.742031 -12.184366
-0.782353 -1.693563 -12.262447
-0.777377 -1.616068 -12.313445
-0.745742 -2.317108 -11.449730
-0.720207 -2.185614 -11.575485
-0.747524 -3.433509 -11.641435
-0.745960 -3.290263 -11.510050
-0.739458 -3.155822 -11.351749
-0.701601 -3.031024 -11.214333
-0.696771 -2.863790 -11.081197
-0.704985 -2.696875 -10.951078
-0.750016 -3.617028 -11.788845
-0.732521 -2.122133 -11.688707
-0.750611 -2.062749 -11.797655
-0.689002 -2.620680 -11.067034
-0.700930 -2.565628 -11.129729
-0.760070 -1.967970 -11.910443
-0.760625 -1.901539 -12.020077
-0.706144 -2.459911 -11.264181
-0.709572 -2.379430 -11.319832
-0.820071 -1.551262 -12.475514
-0.833421 -1.520967 -12.528723
-0.814781 -1.829431 -12.122698
-0.829136 -1.768948 -12.221283
-0.819891 -1.684677 -12.298749
-0.815412 -1.628571 -12.371104
-0.764541 -2.300280 -11.495817
-0.772079 -2.226201 -11.619940
-0.791205 -3.431014 -11.638991
-0.773208 -3.295159 -11.508630
-0.762773 -3.171881 -11.367147
-0.744488 -3.021150 -11.227010
-0.733757 -2.856349 -11.083449
-0.735153 -2.706476 -10.981124
-0.802887 -3.618957 -11.807893
-0.774033 -2.151241 -11.723120
-0.788937 -2.064705 -11.835842
-0.740345 -2.628330 -11.110061
-0.752348 -2.569448 -11.174573
-0.793452 -1.974677 -11.946530
-0.807708 -1.872025 -12.051872
-0.740858 -2.477756 -11.273560
-0.762734 -2.400503 -11.359542
-0.888417 -1.558377 -12.518776
-0.829696 -1.839743 -12.178809
-0.851759 -1.763524 -12.266269
-0.869043 -1.714573 -12.329155
-0.853894 -1.643963 -12.422635
-0.800732 -2.316645 -11.539257
-0.813721 -2.227677 -11.672062
-0.799711 -3.456682 -11.630722
-0.798533 -3.303330 -11.514737
-0.797650 -3.157484 -11.346463
-0.779915 -3.020696 -11.246829
-0.770907 -2.868199 -11.094877
-0.760358 -2.731822 -11.027549
-0.823070 -3.600933 -11.796486
-0.813023 -2.163637 -11.758398
-0.810120 -2.046993 -11.856378
-0.790235 -2.619384 -11.138694
-0.776743 -2.560852 -11.206977
-0.829270 -1.982944 -11.977595
-0.831936 -1.898766 -12.086012
-0.787586 -2.476507 -11.317624
-0.790208 -2.435944 -11.406566
-0.923773 -1.567324 -12.582809
-0.892046 -1.836029 -12.226482
-0.893108 -1.772141 -12.320310
-0.886832 -1.699474 -12.385595
-0.898179 -1.655358 -12.472918
-0.845319 -2.341086 -11.584816
-0.870435 -2.224650 -11.703521
-0.819660 -3.425109 -11.641009
-0.825972 -3.312695 -11.507600
-0.826828 -3.166811 -11.375153
-0.819378 -3.025177 -11.248115
-0.808257 -2.867460 -11.082012
-0.804266 -2.725182 -11.061221
-0.867420 -3.624367 -11.804423
-0.857588 -2.155238 -11.790580
-0.865564 -2.081096 -11.930495
-0.792065 -2.657172 -11.184158
-0.823434 -2.582350 -11.239813
-0.866945 -1.992969 -12.046933
-0.892804 -1.892004 -12.137119
-0.803048 -2.495002 -11.375646
-0.847068 -2.435657 -11.443406
-0.934938 -1.595434 -12.611466
-0.942056 -1.843973 -12.271149
-0.933048 -1.768739 -12.369444
-0.942302 -1.722191 -12.452178
-0.938436 -1.662967 -12.526658
-0.875552 -2.321184 -11.623067
-0.899318 -2.252244 -11.740260
-0.880973 -3.441942 -11.639875
-0.882048 -3.308449 -11.519411
-0.879775 -3.148548 -11.373953
-0.852066 -3.017628 -11.256015
-0.853120 -2.885901 -11.109440
-0.843706 -2.741361 -11.097571
-0.892082 -2.166493 -11.850251
-0.878898 -2.071425 -11.945991
-0.849968 -2.656097 -11.230499
-0.849172 -2.594426 -11.284984
-0.925220 -1.992561 -12.068615
-0.915146 -1.920567 -12.182543
-0.862423 -2.478742 -11.398464
-0.865517 -2.429813 -11.507604
-0.982596 -1.840029 -12.329863
-0.975753 -1.802105 -12.401208
-0.976867 -1.726996 -12.499059
-0.985685 -1.669988 -12.561384
-0.914813 -2.338409 -11.671097
-0.925005 -2.252560 -11.783099
-0.918958 -3.437357 -11.636904
-0.901982 -3.327232 -11.526426
-0.896790 -3.180613 -11.382045
-0.903394 -3.048010 -11.250903
-0.878118 -2.865027 -11.110465
-0.883695 -2.725170 -11.118843
-0.942015 -2.172243 -11.895839
-0.942063 -2.069534 -12.007472
-0.886256 -2.658976 -11.236624
-0.890685 -2.615642 -11.325042
-0.947642 -2.010678 -12.124076
-0.954738 -1.923123 -12.225864
-0.899445 -2.529980 -11.449417
-0.911450 -2.445724 -11.539283
-1.014727 -1.871480 -12.352464
-1.016384 -1.781582 -12.472025
-1.015405 -1.736910 -12.541117
-1.020431 -1.663084 -12.615293
-0.964102 -2.345598 -11.703343
-0.944244 -2.275452 -11.835458
-0.960177 -3.448639 -11.656015
-0.950422 -3.331154 -11.530038
-0.935200 -3.181883 -11.375033
-0.926867 -3.025436 -11.258827
-0.905932 -2.891701 -11.128456
-0.905974 -2.749775 -11.178343
-0.979306 -2.181627 -11.936141
-0.980650 -2.107850 -12.049192
-0.912041 -2.653849 -11.290233
-0.918043 -2.633524 -11.368052
-1.003084 -2.016886 -12.162188
-0.986096 -1.922928 -12.278087
-0.937900 -2.517867 -11.488122
-0.947323 -2.469699 -11.574308
-1.060083 -1.853253 -12.403488
-1.054731 -1.808276 -12.509581
-1.070253 -1.758303 -12.607858
-1.063275 -1.681782 -12.664182
-0.996767 -2.382861 -11.747936
-0.991042 -2.272845 -11.885990
-0.985989 -3.454257 -11.653852
-0.974166 -3.320108 -11.540312
-0.967865 -3.181742 -11.386442
-0.959667 -3.037933 -11.261327
-0.944278 -2.876160 -11.127641
-0.945234 -2.781279 -11.218686
-1.027241 -2.190506 -11.991315
-1.029157 -2.112464 -12.113588
-0.958717 -2.677774 -11.360544
-0.956717 -2.628557 -11.394166
-1.019187 -2.027043 -12.203760
-1.038367 -1.933995 -12.342798
-0.981808 -2.555137 -11.538266
-0.982301 -2.466709 -11.630869
-1.091481 -1.858852 -12.456276
-1.106743 -1.814110 -12.558301
-1.097254 -1.765652 -12.632702
-1.103875 -1.676163 -12.728692
-1.022040 -2.380281 -11.769447
-1.031880 -2.265689 -11.924688
-1.035518 -3.455731 -11.663369
-0.998682 -3.339579 -11.541550
-1.008023 -3.167724 -11.404519
-0.970858 -3.021830 -11.270350
-0.972581 -2.861211 -11.118104
-0.991720 -2.785650 -11.238576
-1.046690 -2.198943 -12.039573
-1.075544 -2.111340 -12.157229
-0.986774 -2.683033 -11.389730
-1.006056 -2.633228 -11.447147
-1.052698 -2.027672 -12.277339
-1.101900 -1.939595 -12.366682
-1.013567 -2.557770 -11.568140
-1.012966 -2.473349 -11.651873
-1.105765 -1.886900 -12.509413
-1.144820 -1.833040 -12.616508
-1.148662 -1.745394 -12.696884
-1.159535 -1.696177 -12.767714
-1.080457 -2.366439 -11.841168
-1.080108 -2.266193 -11.977045
-1.076450 -3.456582 -11.671733
-1.056481 -3.316707 -11.557572
-1.047047 -3.180291 -11.406857
-1.041294 -3.041517 -11.265386
-1.013260 -2.887659 -11.145685
-1.034970 -2.791912 -11.297775
-1.087490 -2.208057 -12.090592
-1.096033 -2.128090 -12.200031
-1.034710 -2.687646 -11.409498
-1.056704 -2.648671 -11.492662
-1.118782 -2.023306 -12.325267
-1.127070 -1.958607 -12.441094
-1.076221 -2.547285 -11.619992
-1.053109 -2.487105 -11.689420
-1.181263 -1.884641 -12.561695
-1.170357 -1.814863 -12.649233
-1.196220 -1.750901 -12.723021
-1.108442 -2.400029 -11.873102
-1.106364 -2.299491 -12.043470
-1.091918 -3.353171 -11.547592
-1.072706 -3.180139 -11.412280
-1.069609 -3.044389 -11.277293
-1.055520 -2.900733 -11.181233
-1.061813 -2.803682 -11.349204
-1.135430 -2.228884 -12.096693
-1.135670 -2.136721 -12.246600
-1.084953 -2.693761 -11.472001
-1.098498 -2.644909 -11.513089
-1.143002 -2.049621 -12.345289
-1.157794 -1.962990 -12.478265
-1.087030 -2.564634 -11.637005
-1.094071 -2.510097 -11.717186
-1.208421 -1.899162 -12.608825
-1.221872 -1.826028 -12.699379
-1.243009 -1.759188 -12.783504
-1.162321 -2.412172 -11.921935
-1.152981 -2.308900 -12.068750
-1.111400 -3.337720 -11.558796
-1.123718 -3.196262 -11.398827
-1.081614 -3.025011 -11.273337
-1.085979 -2.888133 -11.221778
-1.093536 -2.823016 -11.368079
-1.175438 -2.243935 -12.172904
-1.187789 -2.137114 -12.276925
-1.108329 -2.708512 -11.507087
-1.128326 -2.668625 -11.576377
-1.198816 -2.053756 -12.396209
-1.207086 -1.964246 -12.516658
-1.120618 -2.579561 -11.681289
-1.125595 -2.513214 -11.762272
-1.273689 -1.885089 -12.659484
-1.266585 -1.839444 -12.756726
-1.269430 -1.781308 -12.850336
-1.200895 -2.406849 -11.969198
-1.215154 -2.323661 -12.105100
-1.152093 -3.345495 -11.585516
-1.147627 -3.182794 -11.421446
-1.119141 -3.050162 -11.283482
-1.134837 -2.918972 -11.272154
-1.133886 -2.820105 -11.396706
-1.218971 -2.246322 -12.225394
-1.237126 -2.150435 -12.328379
-1.143399 -2.742998 -11.537018
-1.168759 -2.674143 -11.592238
-1.247773 -2.056445 -12.428851
-1.261378 -1.976222 -12.572432
-1.172356 -2.591256 -11.718288
-1.208679 -2.499982 -11.814993
-1.230834 -2.432862 -12.024167
-1.243060 -2.319312 -12.155763
-1.159086 -3.194426 -11.437704
-1.162398 -3.049528 -11.294487
-1.184219 -2.940280 -11.323996
-1.185897 -2.823402 -11.447235
-1.276428 -2.235677 -12.250150
-1.264471 -2.172966 -12.366096
-1.203743 -2.742275 -11.597484
-1.223735 -2.684785 -11.646847
-1.289231 -2.062291 -12.490489
-1.296683 -1.990979 -12.620947
-1.201770 -2.588399 -11.769855
-1.219899 -2.535673 -11.862041
-1.280291 -2.436546 -12.068824
-1.279928 -2.334917 -12.188124
-1.198434 -3.179063 -11.427497
-1.217667 -3.060662 -11.307215
-1.203767 -2.931888 -11.354054
-1.227355 -2.837242 -11.491465
-1.305095 -2.261112 -12.317514
-1.325616 -2.172407 -12.425151
-1.216368 -2.764987 -11.618212
-1.229511 -2.690493 -11.677695
-1.267321 -2.598912 -11.810896
-1.265315 -2.544862 -11.901243
-1.319624 -2.450670 -12.099019
-1.337130 -2.337741 -12.221720
-1.259521 -3.190357 -11.429551
-1.212342 -3.047627 -11.286685
-1.215784 -2.962381 -11.378661
-1.267399 -2.855877 -11.519248
-1.268252 -2.757694 -11.662884
-1.281389 -2.715562 -11.731908
-1.292374 -2.614890 -11.861152
-1.304364 -2.534458 -11.951469
-1.268691 -3.202291 -11.435678
-1.268565 -3.074102 -11.301001
-1.285466 -2.978621 -11.428227
-1.277877 -2.874422 -11.564772
-1.315632 -2.775113 -11.694899
-1.324989 -2.722349 -11.781083
-1.333661 -2.625999 -11.914606
-1.360124 -2.562532 -12.015880
-1.315151 -3.204301 -11.447226
-1.298421 -3.050786 -11.363618
-1.330863 -2.974368 -11.488139
-1.334320 -2.869961 -11.615850
-1.368247 -2.788367 -11.741287
-1.353982 -2.723381 -11.831635
-1.368525 -3.193255 -11.463036
-1.345531 -3.084841 -11.386308
-1.350347 -3.004902 -11.502321
-1.384043 -2.896111 -11.656606
-1.383897 -3.079710 -11.430464
-1.404779 -3.004139 -11.558153
1.389284 -3.376224 -11.396470
1.407331 -3.318747 -11.457191
1.416059 -3.231184 -11.552475
1.478300 -2.488166 -12.328560
1.454643 -2.376584 -12.434097
1.364727 -3.358193 -11.382977
1.359758 -3.289536 -11.445126
1.390414 -3.218344 -11.534283
1.368343 -3.128191 -11.611432
1.411823 -3.042772 -11.706308
1.421153 -2.919595 -11.835663
1.512954 -2.291760 -12.530590
1.492182 -2.214105 -12.621797
1.426091 -2.828778 -11.952027
1.449500 -2.779016 -11.994379
1.509655 -2.115279 -12.724718
1.534112 -2.012652 -12.849757
1.429890 -2.681874 -12.107756
1.444197 -2.602429 -12.190230
1.406393 -2.466345 -12.264014
1.440706 -2.388819 -12.384813
1.322244 -3.380431 -11.392694
1.327069 -3.274191 -11.373230
1.336303 -3.197478 -11.480087
1.329916 -3.121295 -11.562155
1.342371 -3.034962 -11.667029
1.378489 -2.929023 -11.769069
1.434643 -2.283478 -12.471016
1.458283 -2.205068 -12.583751
1.377289 -2.810965 -11.884579
1.377355 -2.754345 -11.969520
1.469845 -2.126676 -12.663402
1.483779 -1.999870 -12.774284
1.411816 -2.653252 -12.057516
1.406254 -2.577257 -12.128021
1.374019 -2.460619 -12.203300
1.382113 -2.354528 -12.340082
1.289516 -3.366706 -11.374341
1.286442 -3.269613 -11.323645
1.307414 -3.181163 -11.428172
1.316885 -3.119810 -11.513037
1.312347 -3.012696 -11.618292
1.329799 -2.906391 -11.725702
1.415979 -2.269788 -12.410749
1.418979 -2.191807 -12.509549
1.331338 -2.810273 -11.839750
1.344141 -2.744795 -11.921329
1.421876 -2.089573 -12.621174
1.428001 -1.989231 -12.719480
1.358277 -2.658182 -12.009006
1.363024 -2.569506 -12.083775
1.405689 -1.926439 -12.732327
1.342952 -2.467158 -12.145117
1.346568 -2.347292 -12.270028
1.246424 -3.362804 -11.380925
1.244928 -3.237542 -11.268332
1.247706 -3.169859 -11.378560
1.250776 -3.098091 -11.457565
1.261255 -2.998677 -11.564813
1.269805 -2.897925 -11.681219
1.352541 -2.273257 -12.358246
1.360277 -2.163229 -12.467789
1.297491 -2.790531 -11.783019
1.297019 -2.737925 -11.849542
1.375260 -2.089378 -12.554258
1.379853 -2.002129 -12.649922
1.300921 -2.638930 -11.936320
1.333121 -2.556229 -12.044680
1.338754 -1.910451 -12.665530
1.281483 -2.453643 -12.109909
1.281588 -2.354179 -12.204547
1.202339 -3.377609 -11.402017
1.192187 -3.242155 -11.264332
1.217008 -3.154616 -11.326937
1.209563 -3.079517 -11.416078
1.233417 -2.980330 -11.514396
1.237842 -2.874049 -11.621615
1.296712 -2.272004 -12.287872
1.316291 -2.160444 -12.398895
1.231344 -2.771542 -11.758678
1.266833 -2.720062 -11.804467
1.338257 -2.077545 -12.491902
1.339802 -1.990209 -12.593646
1.260476 -2.636169 -11.891968
1.289484 -2.553643 -11.975396
1.324811 -1.909473 -12.594075
1.256048 -2.429792 -12.051952
1.265219 -2.306651 -12.162588
1.185103 -3.360386 -11.410391
1.179382 -3.264773 -11.268156
1.181008 -3.128818 -11.279315
1.177046 -3.056678 -11.364056
1.194287 -2.978485 -11.463176
1.197152 -2.857736 -11.577399
1.269107 -2.244891 -12.250174
1.292626 -2.152018 -12.344851
1.216775 -2.761793 -11.685060
1.223245 -2.707198 -11.738610
1.273974 -2.074373 -12.431763
1.297247 -1.972375 -12.526164
1.220323 -2.606514 -11.828403
1.237300 -2.544568 -11.916502
1.258426 -1.904659 -12.557194
1.265469 -1.819602 -12.642190
1.201425 -2.414676 -11.995192
1.229335 -2.303862 -12.093348
1.160825 -3.376764 -11.378010
1.133317 -3.263405 -11.263145
1.148913 -3.134489 -11.226786
1.138834 -3.043258 -11.310382
1.141882 -2.962176 -11.401164
1.162949 -2.838217 -11.522684
1.216515 -2.239892 -12.175677
1.235966 -2.147750 -12.281029
1.166008 -2.738198 -11.640877
1.198745 -2.691237 -11.700655
1.255577 -2.058163 -12.387304
1.264682 -1.946947 -12.495006
1.188905 -2.600668 -11.790798
1.200533 -2.507099 -11.865225
1.215106 -1.889954 -12.508832
1.232254 -1.799683 -12.570511
1.149662 -2.415345 -11.947094
1.173398 -2.296826 -12.049825
1.124138 -3.377111 -11.400780
1.110175 -3.257729 -11.277325
1.104922 -3.113128 -11.200238
1.113818 -3.041453 -11.279368
1.099823 -2.937002 -11.366759
1.111969 -2.847241 -11.465764
1.121080 -3.551343 -11.553831
1.188736 -2.232087 -12.135794
1.190642 -2.105777 -12.218204
1.131623 -2.734139 -11.589605
1.163153 -2.687138 -11.651525
1.205631 -2.035469 -12.328828
1.212966 -1.963409 -12.433267
1.142163 -2.571290 -11.745675
1.137899 -2.525211 -11.819272
1.171661 -1.866258 -12.442140
1.184549 -1.797130 -12.523478
1.204599 -1.732858 -12.582365
1.122360 -2.375184 -11.892422
1.132629 -2.296239 -11.987071
1.085943 -3.377403 -11.385258
1.059582 -3.250651 -11.278152
1.050500 -3.091303 -11.143201
1.077361 -3.032441 -11.225282
1.079533 -2.932963 -11.322672
1.077409 -2.811623 -11.434393
1.097881 -3.549867 -11.572442
1.142294 -2.223229 -12.074251
1.150414 -2.111823 -12.171897
1.102784 -2.727045 -11.529208
1.108784 -2.675239 -11.586899
1.157599 -2.030848 -12.278200
1.171503 -1.961307 -12.371288
1.105334 -2.568216 -11.711338
1.135816 -2.525003 -11.780224
1.134670 -1.865584 -12.383962
1.135299 -1.803578 -12.438414
1.144513 -1.738653 -12.520166
1.074663 -2.389558 -11.819265
1.105479 -2.290403 -11.954264
1.050229 -3.396166 -11.395633
1.029296 -3.249864 -11.285393
1.017353 -3.107407 -11.135443
1.022296 -3.005742 -11.182240
1.029196 -2.905331 -11.274257
1.054862 -2.814165 -11.382271
1.046244 -3.553083 -11.580971
1.107463 -2.204596 -12.023999
1.098474 -2.106852 -12.111096
1.052853 -2.716046 -11.476374
1.049698 -2.649170 -11.552416
1.098139 -2.010540 -12.211277
1.132376 -1.959284 -12.316955
1.073929 -2.579479 -11.655386
1.079284 -2.499309 -11.721409
1.105720 -1.836676 -12.318828
1.097766 -1.792450 -12.399762
1.096734 -1.732745 -12.470220
1.116969 -1.652546 -12.521219
1.028829 -2.369219 -11.792462
1.054434 -2.277589 -11.900745
1.014539 -3.369104 -11.399819
1.000913 -3.255860 -11.298284
0.996074 -3.102229 -11.135927
0.996285 -3.005164 -11.126401
1.011019 -2.917962 -11.242936
0.999888 -2.789972 -11.333179
1.013923 -3.560624 -11.572594
1.058846 -2.185164 -11.962678
1.087366 -2.102337 -12.091684
1.004838 -2.703989 -11.440383
1.024556 -2.635034 -11.509325
1.081701 -2.019824 -12.154292
1.084283 -1.914758 -12.248735
1.036501 -2.564873 -11.587216
1.031510 -2.483085 -11.659901
1.049057 -1.852538 -12.294970
1.059107 -1.767470 -12.351303
1.073954 -1.718178 -12.399757
1.054660 -1.656071 -12.467825
1.013176 -2.357836 -11.733102
1.017426 -2.265031 -11.840166
0.986688 -3.363146 -11.418965
0.984006 -3.253534 -11.286198
0.968768 -3.100627 -11.138863
0.956037 -2.980270 -11.077954
0.955487 -2.873926 -11.175811
0.966830 -2.773829 -11.267682
0.979952 -3.557529 -11.579082
1.022679 -2.177840 -11.913171
1.030402 -2.082420 -12.017530
0.974837 -2.676805 -11.387812
0.981722 -2.626180 -11.453857
1.052222 -1.998750 -12.083672
1.061067 -1.898940 -12.204926
1.003007 -2.549064 -11.552552
1.000983 -2.470950 -11.608630
1.001418 -1.851040 -12.211263
1.005070 -1.777927 -12.272475
1.022167 -1.684225 -12.358932
1.031927 -1.650408 -12.392132
0.972266 -2.357571 -11.685453
0.973479 -2.254804 -11.790173
0.940487 -3.375878 -11.413005
0.935042 -3.252730 -11.310531
0.918801 -3.105191 -11.151022
0.919128 -2.964710 -11.046400
0.921450 -2.883261 -11.138135
0.934458 -2.792213 -11.255652
0.940782 -3.553332 -11.583744
0.977474 -2.181134 -11.879116
1.003273 -2.078878 -11.955960
0.923684 -2.670789 -11.351768
0.947832 -2.620922 -11.404892
1.007950 -1.995544 -12.058838
1.000073 -1.919576 -12.136200
0.947966 -2.531412 -11.494967
0.956289 -2.462945 -11.578284
0.993630 -1.556274 -12.439842
0.959927 -1.817774 -12.165868
0.959778 -1.760343 -12.240734
0.975418 -1.708480 -12.297288
0.983222 -1.626089 -12.339038
0.921393 -2.331421 -11.625567
0.930326 -2.238622 -11.715019
0.902123 -3.367382 -11.400391
0.898212 -3.238457 -11.307355
0.885493 -3.110920 -11.178100
0.882767 -2.968349 -11.025143
0.882436 -2.871604 -11.076476
0.892205 -2.759471 -11.179458
0.919512 -3.580232 -11.582123
0.959537 -2.160961 -11.808599
0.944715 -2.064868 -11.910390
0.896719 -2.656005 -11.308039
0.896668 -2.599055 -11.356872
0.957349 -1.981207 -11.998657
0.934299 -1.912695 -12.078145
0.928730 -2.526849 -11.436366
0.921391 -2.459301 -11.511499
0.947028 -1.552411 -12.369481
0.933550 -1.829726 -12.104018
0.941846 -1.750466 -12.178526
0.937623 -1.693281 -12.241207
0.965165 -1.631076 -12.279487
0.886756 -2.334591 -11.584295
0.870324 -2.213889 -11.705292
0.857224 -3.365311 -11.431503
0.862373 -3.221847 -11.314577
0.852733 -3.088865 -11.164298
0.850222 -2.979098 -11.021721
0.842766 -2.859132 -11.038527
0.847897 -2.751218 -11.158487
0.898265 -3.552364 -11.580740
0.898026 -2.154219 -11.765998
0.910898 -2.062804 -11.854794
0.836946 -2.655915 -11.250331
0.862088 -2.592847 -11.311851
0.912595 -1.970849 -11.934926
0.918943 -1.888089 -12.040941
0.849406 -2.511866 -11.376965
0.862530 -2.440387 -11.475347
0.916672 -1.547951 -12.338664
0.929667 -1.490789 -12.383909
0.892430 -1.800034 -12.059165
0.885206 -1.735978 -12.122724
0.905783 -1.695924 -12.179508
0.888808 -1.645655 -12.244066
0.838293 -2.328602 -11.540491
0.854223 -2.219771 -11.643417
0.832971 -3.367426 -11.425481
0.831139 -3.245338 -11.297798
0.822390 -3.090847 -11.157895
0.818706 -2.975582 -11.051045
0.809305 -2.854711 -10.996496
0.820542 -2.739749 -11.112105
0.871253 -3.554366 -11.591941
0.856360 -2.143664 -11.719667
0.845175 -2.043442 -11.815288
0.820068 -2.644034 -11.209528
0.821349 -2.586348 -11.264807
0.870325 -1.968078 -11.877109
0.881645 -1.881573 -11.993725
0.818158 -2.494528 -11.348913
0.825505 -2.429992 -11.428151
0.859343 -1.538389 -12.276601
0.864610 -1.482682 -12.335400
0.842937 -1.815257 -11.995343
0.848853 -1.745753 -12.057385
0.846394 -1.675435 -12.136536
0.854735 -1.622200 -12.182842
0.816600 -2.311620 -11.494028
0.811223 -2.210814 -11.590309
0.793474 -3.376822 -11.435398
0.808685 -3.261393 -11.310694
0.784388 -3.113175 -11.153809
0.780233 -2.969290 -11.058657
0.773702 -2.833306 -10.965558
0.774920 -2.726845 -11.034937
0.801168 -3.533046 -11.594224
0.813226 -2.145531 -11.676934
0.821828 -2.046795 -11.748647
0.776516 -2.621585 -11.165072
0.793065 -2.556422 -11.218900
0.835022 -1.958936 -11.833417
0.847827 -1.881098 -11.933702
0.787255 -2.490503 -11.321397
0.798365 -2.413524 -11.361095
0.840102 -1.551368 -12.202573
0.823821 -1.479708 -12.246848
0.807947 -1.798605 -11.931241
0.820238 -1.754588 -12.013942
0.818299 -1.659856 -12.062163
0.833030 -1.586143 -12.112644
0.768614 -2.292605 -11.434617
0.773988 -2.189727 -11.542093
0.771844 -3.368638 -11.437344
0.775774 -3.247650 -11.314184
0.762629 -3.106443 -11.160691
0.730404 -2.961116 -11.055602
0.731431 -2.825590 -10.898220
0.725162 -2.728073 -10.994558
0.791651 -3.751265 -11.794559
0.773598 -3.562026 -11.596645
0.785407 -2.123434 -11.615189
0.781496 -2.032725 -11.696176
0.747040 -2.614707 -11.098040
0.756308 -2.569557 -11.171354
0.806275 -1.958973 -11.786432
0.800665 -1.856491 -11.854004
0.746056 -2.487614 -11.257131
0.760532 -2.408905 -11.332285
0.774556 -1.521115 -12.148648
0.777771 -1.478490 -12.211160
0.784733 -1.436427 -12.276574
0.763440 -1.785168 -11.890746
0.760323 -1.708738 -11.944965
0.773591 -1.656138 -12.022915
0.793723 -1.609233 -12.058756
0.730688 -2.277304 -11.404190
0.743205 -2.195548 -11.474356
0.745845 -3.382928 -11.444129
0.728180 -3.252589 -11.305204
0.697267 -3.092279 -11.182843
0.713353 -2.987878 -11.067987
0.715869 -2.829311 -10.917706
0.693593 -2.695127 -10.972809
0.772653 -3.736910 -11.789666
0.721879 -3.549922 -11.587443
0.751302 -2.111270 -11.581199
0.750674 -2.030615 -11.661734
0.703250 -2.602640 -11.061012
0.716209 -2.550765 -11.124939
0.769704 -1.939813 -11.725033
0.753594 -1.857530 -11.813060
0.695353 -2.474076 -11.205892
0.728467 -2.403603 -11.270736
0.745380 -1.513961 -12.101845
0.751695 -1.464628 -12.166413
0.743900 -1.382503 -12.214976
0.738851 -1.778503 -11.840136
0.737075 -1.702778 -11.914813
0.714181 -1.643965 -11.964687
0.736539 -1.590800 -12.023478
0.686335 -2.277762 -11.341196
0.713261 -2.171448 -11.444150
0.713034 -3.364738 -11.430072
0.704137 -3.258258 -11.328921
0.675994 -3.110323 -11.185135
0.671736 -2.977517 -11.058509
0.637702 -2.809900 -10.900267
0.681630 -2.684447 -10.939599
0.724656 -3.757379 -11.784437
0.700871 -3.563798 -11.615851
0.701951 -2.103355 -11.527878
0.698061 -2.023451 -11.613294
0.672720 -2.599338 -11.021061
0.678745 -2.537027 -11.066741
0.732130 -1.945118 -11.683600
0.717709 -1.847830 -11.759075
0.688399 -2.464555 -11.170532
0.673054 -2.391984 -11.241581
0.698358 -1.515544 -12.038054
0.730815 -1.459656 -12.116328
0.694706 -1.364061 -12.174706
0.661737 -1.775162 -11.797723
0.681843 -1.715354 -11.861377
0.710768 -1.656710 -11.901546
0.681459 -1.598840 -11.961747
0.649144 -2.277627 -11.289086
0.668521 -2.174465 -11.402856
0.667596 -3.373686 -11.439613
0.663890 -3.260172 -11.346188
0.646830 -3.106858 -11.177578
0.641438 -2.983417 -11.035410
0.617912 -2.808054 -10.925538
0.650095 -2.688661 -10.867772
0.682514 -3.750325 -11.783046
0.668435 -3.539619 -11.608362
0.672183 -2.098892 -11.483109
0.666202 -2.011879 -11.549559
0.660643 -2.589736 -10.977392
0.649109 -2.543241 -11.023937
0.657287 -1.934086 -11.627174
0.674723 -1.827803 -11.729780
0.636408 -2.434425 -11.099713
0.651475 -2.364081 -11.193377
0.653567 -1.510916 -12.001143
0.645806 -1.441450 -12.053722
0.659244 -1.389326 -12.105386
0.663050 -1.307854 -12.201134
0.644987 -1.761689 -11.714397
0.656802 -1.683000 -11.813288
0.662430 -1.650247 -11.861634
0.668554 -1.588759 -11.913235
0.626417 -2.260332 -11.237023
0.603227 -2.172844 -11.341660
0.639440 -3.378939 -11.432056
0.620265 -3.268841 -11.328225
0.620948 -3.096030 -11.194811
0.600509 -2.972346 -11.054227
0.604579 -2.814255 -10.937477
0.604891 -2.695912 -10.830979
0.650407 -3.742845 -11.795054
0.635684 -3.559975 -11.615640
0.638998 -2.083777 -11.409376
0.631448 -1.993772 -11.494794
0.596648 -2.583277 -10.920780
0.587761 -2.501612 -10.972342
0.664962 -1.916735 -11.593392
0.657262 -1.802722 -11.682791
0.606008 -2.431626 -11.086570
0.608803 -2.368346 -11.129116
0.645712 -1.496195 -11.939769
0.637029 -1.442660 -12.009625
0.633175 -1.390676 -12.062683
0.643522 -1.301161 -12.139765
0.606856 -1.743787 -11.686111
0.610860 -1.693138 -11.745190
0.632618 -1.257625 -12.200052
0.622824 -1.630336 -11.815090
0.617277 -1.571668 -11.868321
0.588162 -2.258750 -11.196640
0.598948 -2.150502 -11.291932
0.593321 -3.379579 -11.440937
0.607002 -3.247141 -11.343029
0.576146 -3.104373 -11.194092
0.566335 -2.974854 -11.056711
0.586915 -2.827939 -10.909621
0.560335 -2.653738 -10.790395
0.638081 -3.761426 -11.785013
0.623230 -3.559603 -11.610013
0.595137 -2.083614 -11.373586
0.601912 -1.988273 -11.453985
0.567484 -2.566578 -10.890090
0.591705 -2.494416 -10.945488
0.602867 -1.919872 -11.534427
0.623412 -1.809080 -11.601010
0.590006 -2.432046 -11.036780
0.561284 -2.362926 -11.095567
0.593120 -1.495505 -11.892812
0.603363 -1.452450 -11.931482
0.582268 -1.367123 -12.016266
0.594123 -1.289861 -12.083222
0.578375 -1.752703 -11.637818
0.578679 -1.683806 -11.695208
0.585140 -1.242242 -12.123903
0.576716 -1.597294 -11.769146
0.586636 -1.564145 -11.820202
0.547184 -2.262860 -11.142752
0.557420 -2.147570 -11.233837
0.571085 -3.380155 -11.450314
0.548681 -3.251321 -11.335876
0.538995 -3.102131 -11.187423
0.544656 -2.962477 -11.073340
0.564294 -2.806845 -10.924673
0.536991 -2.664667 -10.762843
0.576175 -3.745906 -11.810258
0.579524 -3.550858 -11.609794
0.572573 -2.071585 -11.329675
0.549289 -1.969978 -11.399200
0.530510 -2.564865 -10.834823
0.538760 -2.493445 -10.896311
0.566394 -1.896704 -11.468623
0.559599 -1.805272 -11.584284
0.530621 -2.409752 -10.968349
0.540954 -2.344363 -11.052709
0.550435 -1.482989 -11.835962
0.534717 -1.427166 -11.888293
0.539000 -1.367147 -11.941189
0.550846 -1.286819 -12.027872
0.550007 -1.746405 -11.575989
0.532853 -1.689041 -11.645712
0.571924 -1.253761 -12.079814
0.534351 -1.621512 -11.712098
0.545668 -1.553841 -11.759493
0.524122 -2.225933 -11.086983
0.525800 -2.142550 -11.195990
0.524001 -3.369142 -11.439419
0.530463 -3.261847 -11.353445
0.524740 -3.125405 -11.197056
0.513325 -2.994357 -11.062734
0.514128 -2.833792 -10.932685
0.489744 -2.646106 -10.773836
0.537457 -3.760729 -11.792960
0.536092 -3.559653 -11.614623
0.520354 -2.057212 -11.286695
0.534784 -1.970210 -11.343915
0.513464 -2.548923 -10.799467
0.502266 -2.498381 -10.868970
0.542024 -1.899810 -11.439881
0.555861 -1.825728 -11.534691
0.504272 -2.398195 -10.938747
0.500000 -2.336770 -10.998857
0.500070 -1.486900 -11.783603
0.525931 -1.422184 -11.851313
0.514580 -1.353658 -11.885128
0.506744 -1.291015 -11.968538
0.494917 -1.733203 -11.523322
0.520128 -1.673464 -11.582177
0.511558 -1.241092 -12.012601
0.531638 -1.158151 -12.081213
0.534600 -1.601364 -11.642313
0.523140 -1.555356 -11.725158
0.500609 -2.233806 -11.056788
0.497236 -2.128654 -11.168169
0.495005 -3.376146 -11.464825
0.487234 -3.244044 -11.327145
0.479181 -3.120859 -11.208958
0.481228 -2.978847 -11.064590
0.479446 -2.822295 -10.929095
0.442945 -2.663566 -10.769991
0.492878 -3.747291 -11.827163
0.502982 -3.586111 -11.637180
0.471477 -2.034587 -11.251765
0.484095 -1.958752 -11.310200
0.469699 -2.520309 -10.764587
0.473646 -2.490550 -10.825905
0.492804 -1.885268 -11.405886
0.518367 -1.792954 -11.471449
0.459851 -2.386714 -10.911016
0.453535 -2.307972 -10.945034
0.463367 -1.484459 -11.728184
0.485330 -1.427260 -11.802017
0.464488 -1.361254 -11.861123
0.505577 -1.250542 -11.935562
0.472395 -1.718061 -11.474448
0.471091 -1.661382 -11.547856
0.479686 -1.243064 -11.965901
0.496217 -1.162964 -12.039383
0.467240 -1.604495 -11.606326
0.474895 -1.533849 -11.667743
0.456939 -2.195813 -11.018621
0.445116 -2.119328 -11.111007
0.441967 -3.379341 -11.461297
0.451424 -3.246945 -11.361666
0.447818 -3.113763 -11.203287
0.431191 -2.980826 -11.073724
0.487433 -3.923297 -11.997721
0.435696 -2.808291 -10.927369
0.431279 -2.647029 -10.754359
0.480072 -3.769772 -11.810974
0.470589 -3.556348 -11.631113
0.449931 -2.036983 -11.196106
0.458187 -1.962058 -11.259475
0.425513 -2.514181 -10.716521
0.415604 -2.467817 -10.770689
0.455588 -1.875555 -11.341792
0.470506 -1.789411 -11.415977
0.426567 -2.368241 -10.840392
0.441842 -2.318373 -10.911749
0.442574 -1.472746 -11.679603
0.454436 -1.406074 -11.728927
0.456597 -1.350057 -11.791820
0.465501 -1.270215 -11.878210
0.436514 -1.699115 -11.435487
0.423965 -1.650997 -11.494417
0.444270 -1.217283 -11.900775
0.459794 -1.153410 -12.000133
0.452028 -1.578560 -11.567370
0.441137 -1.534224 -11.620547
0.402969 -2.209562 -10.962803
0.413961 -2.121650 -11.046371
0.442771 -3.372656 -11.475841
0.427838 -3.253913 -11.340839
0.422800 -3.101944 -11.203588
0.410725 -2.971490 -11.080335
0.448918 -3.946547 -11.991954
0.408101 -2.809525 -10.945675
0.404769 -2.643983 -10.791011
0.447836 -3.748295 -11.824593
0.427699 -3.555346 -11.644062
0.421845 -2.033233 -11.143856
0.415200 -1.941169 -11.222565
0.391801 -2.496692 -10.674634
0.418130 -2.454236 -10.727660
0.401997 -1.878059 -11.289541
0.393253 -1.767796 -11.352766
0.391402 -2.376575 -10.795287
0.421973 -2.324842 -10.880446
0.384183 -1.448689 -11.643160
0.390167 -1.397450 -11.662288
0.405738 -1.344347 -11.749755
0.406771 -1.267667 -11.815163
0.386331 -1.725536 -11.404214
0.401430 -1.636600 -11.450750
0.404677 -1.213920 -11.871319
0.427611 -1.131427 -11.943022
0.405014 -1.580562 -11.500712
0.398113 -1.525613 -11.564910
0.411644 -1.061849 -12.017698
0.381440 -2.192911 -10.941644
0.364092 -2.094261 -11.030031
0.396129 -3.371855 -11.462651
0.393442 -3.253960 -11.361447
0.372074 -3.119002 -11.237764
0.374278 -2.977710 -11.079479
0.414530 -3.942405 -11.975138
0.364680 -2.828566 -10.954089
0.373202 -2.666653 -10.804418
0.395948 -3.745218 -11.819113
0.412957 -3.558130 -11.629767
0.389356 -2.030018 -11.100295
0.375662 -1.921585 -11.168980
0.368015 -2.504554 -10.638323
0.361060 -2.444163 -10.666462
0.361259 -1.855336 -11.247688
0.384083 -1.771958 -11.322009
0.365284 -2.367914 -10.759489
0.379015 -2.278207 -10.816869
0.359981 -1.442320 -11.584268
0.355804 -1.387025 -11.627522
0.363642 -1.315718 -11.689329
0.348329 -1.260817 -11.768695
0.348282 -1.696593 -11.337865
0.371085 -1.616639 -11.410680
0.375870 -1.208220 -11.809496
0.382037 -1.136651 -11.875106
0.351258 -1.570253 -11.445453
0.352297 -1.538425 -11.518928
0.366108 -1.068369 -11.944336
0.353221 -2.195101 -10.875958
0.333639 -2.089991 -10.966296
0.349778 -3.382102 -11.473116
0.354112 -3.256373 -11.360227
0.355069 -3.108142 -11.240504
0.338991 -2.977729 -11.075956
0.372352 -3.939394 -11.987181
0.332118 -2.836758 -10.956300
0.324804 -2.665095 -10.784741
0.368339 -3.746710 -11.816272
0.387366 -3.571050 -11.632944
0.333977 -2.016478 -11.049834
0.377432 -1.945041 -11.115598
0.332452 -2.509513 -10.641425
0.335736 -2.442903 -10.632167
0.360247 -1.852544 -11.195242
0.363968 -1.758078 -11.278908
0.337140 -2.356322 -10.724792
0.334557 -2.293208 -10.796412
0.340843 -1.451783 -11.549536
0.331030 -1.399082 -11.597173
0.339935 -1.326108 -11.638007
0.322076 -1.253942 -11.719335
0.308834 -1.687041 -11.300444
0.318068 -1.623716 -11.351317
0.328900 -1.208304 -11.761346
0.339692 -1.131478 -11.834617
0.318169 -1.557857 -11.421045
0.329009 -1.524886 -11.449373
0.333087 -1.046692 -11.904854
0.344782 -1.009613 -11.968460
0.293849 -2.175498 -10.838553
0.304251 -2.090497 -10.927915
0.325948 -3.387883 -11.498419
0.316284 -3.273984 -11.355427
0.311017 -3.108201 -11.236071
0.312880 -2.959866 -11.105896
0.330132 -3.925190 -11.991819
0.300676 -2.833241 -10.955510
0.303814 -2.658765 -10.787575
0.322748 -3.759834 -11.820193
0.326247 -3.557629 -11.648976
0.305484 -1.997119 -11.003310
0.310882 -1.922659 -11.094265
0.293936 -2.504469 -10.650825
0.285289 -2.431238 -10.603498
0.318126 -1.838223 -11.145381
0.309267 -1.761199 -11.236418
0.318013 -2.346600 -10.677060
0.305380 -2.275828 -10.734624
0.297013 -1.436010 -11.459901
0.280732 -1.388149 -11.540256
0.287904 -1.319176 -11.589026
0.303648 -1.236070 -11.650809
0.300763 -1.684582 -11.259892
0.283662 -1.611282 -11.316136
0.288382 -1.177019 -11.692841
0.297898 -1.132482 -11.755231
0.293448 -1.554837 -11.360434
0.314473 -1.508843 -11.449061
0.289241 -1.046504 -11.836600
0.296638 -0.996544 -11.900192
0.265921 -2.162682 -10.798808
0.253625 -2.068715 -10.882015
0.294354 -3.387890 -11.493103
0.278870 -3.269386 -11.359964
0.290007 -3.112442 -11.230310
0.259253 -2.988297 -11.090325
0.311497 -3.947068 -12.008761
0.268297 -2.809875 -10.963201
0.272485 -2.664870 -10.787283
0.286408 -3.763520 -11.831976
0.289506 -3.579696 -11.642570
0.274211 -2.010818 -10.969006
0.271612 -1.918918 -11.044754
0.271970 -2.505234 -10.670768
0.271105 -2.429295 -10.575312
0.275809 -1.842539 -11.122481
0.289736 -1.746431 -11.185969
0.266882 -2.336313 -10.630176
0.260580 -2.257894 -10.700639
0.258502 -1.429030 -11.445057
0.248829 -1.374184 -11.477307
0.267990 -1.303544 -11.541575
0.261322 -1.248839 -11.606231
0.223710 -1.688852 -11.197064
0.256139 -1.624170 -11.256061
0.254221 -1.175965 -11.654535
0.272935 -1.148563 -11.739242
0.249175 -1.531517 -11.324308
0.238015 -1.508946 -11.366002
0.283156 -1.038363 -11.785978
0.267350 -0.987070 -11.856870
0.250536 -0.908820 -11.910592
0.253311 -2.167729 -10.737860
0.241729 -2.066895 -10.825869
0.254166 -3.372674 -11.502866
0.241086 -3.287447 -11.371067
0.247420 -3.117065 -11.225817
0.259456 -2.973960 -11.091451
0.261957 -3.939915 -12.009885
0.247029 -2.835763 -10.944290
0.239374 -2.651569 -10.808320
0.260416 -3.759373 -11.850239
0.247416 -3.579114 -11.638439
0.234776 -1.992759 -10.909821
0.239954 -1.900247 -10.991598
0.238799 -2.506950 -10.647264
0.228167 -2.411874 -10.578543
0.244379 -1.838942 -11.075197
0.248233 -1.727977 -11.127081
0.231088 -2.329775 -10.608686
0.236763 -2.274053 -10.648188
0.219830 -1.435852 -11.399801
0.225710 -1.376717 -11.427533
0.192293 -1.300249 -11.476285
0.218982 -1.222104 -11.553218
0.216777 -1.670318 -11.157532
0.229455 -1.615941 -11.205101
0.236152 -1.169088 -11.598313
0.216782 -1.120897 -11.676129
0.210776 -1.549979 -11.275847
0.198236 -1.491486 -11.320115
0.217329 -1.047177 -11.740034
0.216559 -0.989602 -11.801413
0.220778 -0.933439 -11.844698
0.208235 -2.157349 -10.702243
0.200588 -2.038421 -10.800318
0.234941 -3.395004 -11.482868
0.217571 -3.259098 -11.377884
0.224246 -3.108458 -11.236849
0.216672 -2.992926 -11.097400
0.232356 -3.952670 -12.010444
0.206773 -2.824333 -10.971800
0.213721 -2.656142 -10.790603
0.239357 -3.752821 -11.833051
0.218024 -3.565424 -11.643529
0.224617 -1.983749 -10.860230
0.207472 -1.886932 -10.942863
0.217351 -2.507780 -10.657252
0.201006 -2.426136 -10.589702
0.207338 -1.803198 -11.013092
0.208216 -1.752962 -11.096468
0.206340 -2.333652 -10.553639
0.201443 -2.261031 -10.615798
0.181638 -1.399956 -11.344938
0.176493 -1.359843 -11.379815
0.208264 -1.299636 -11.455459
0.197059 -1.204116 -11.516437
0.159404 -1.658808 -11.092937
0.176075 -1.593857 -11.169935
0.168624 -1.161485 -11.550053
0.193032 -1.115640 -11.617217
0.176614 -1.530494 -11.233459
0.180494 -1.494146 -11.265104
0.195760 -1.037304 -11.719027
0.205148 -0.981328 -11.751639
0.189494 -0.911072 -11.845832
0.183541 -2.122588 -10.677953
0.175119 -2.056236 -10.761960
0.173001 -3.383992 -11.487223
0.175626 -3.280483 -11.372758
0.190602 -3.118225 -11.231689
0.186184 -2.976072 -11.111474
0.211520 -4.116140 -12.198965
0.172832 -3.932364 -12.024949
0.171425 -2.830120 -10.951264
0.164998 -2.663053 -10.809242
0.192779 -3.746020 -11.836348
0.186753 -3.558908 -11.654514
0.187787 -1.982878 -10.824586
0.182477 -1.889245 -10.896876
0.158443 -2.515006 -10.657363
0.163727 -2.428888 -10.583176
0.157600 -1.821531 -10.958996
0.175250 -1.718186 -11.047990
0.187571 -2.305298 -10.506327
0.176174 -2.254333 -10.575292
0.134259 -1.434489 -11.328362
0.163868 -1.364260 -11.376804
0.168665 -1.302007 -11.439148
0.182219 -1.227016 -11.539238
0.135983 -1.652754 -11.077730
0.148122 -1.607260 -11.127448
0.167340 -1.194103 -11.577622
0.159645 -1.133204 -11.661426
0.145002 -1.548076 -11.181253
0.166704 -1.477244 -11.232003
0.150892 -1.030392 -11.744101
0.153132 -0.994049 -11.823445
0.146458 -0.914363 -11.867490
0.123090 -2.130733 -10.634852
0.145197 -2.037703 -10.713175
0.164918 -3.388389 -11.491785
0.127935 -3.270835 -11.386560
0.166554 -3.120518 -11.241705
0.151884 -2.984738 -11.116898
0.154079 -4.130215 -12.200530
0.169631 -3.940852 -12.022596
0.136061 -2.827387 -10.975927
0.151764 -2.665549 -10.800377
0.161907 -3.765525 -11.842581
0.160744 -3.575510 -11.675628
0.134534 -1.972863 -10.776076
0.151603 -1.866402 -10.858226
0.140767 -2.530967 -10.675487
0.145141 -2.419070 -10.574519
0.150789 -1.808663 -10.924060
0.148511 -1.720248 -11.021125
0.139962 -2.307306 -10.467889
0.132223 -2.250143 -10.535388
0.103758 -1.418549 -11.352892
0.109067 -1.362640 -11.414495
0.103418 -1.315720 -11.474105
0.108790 -1.222394 -11.567692
0.101725 -1.660743 -11.050086
0.119630 -1.584757 -11.146991
0.105236 -1.198237 -11.617711
0.108687 -1.134008 -11.703719
0.102561 -1.549149 -11.209509
0.106665 -1.502725 -11.278311
0.113183 -1.037471 -11.809379
0.120222 -0.994800 -11.844817
0.097889 -2.119781 -10.571401
0.103622 -2.012811 -10.681689
0.127215 -3.381093 -11.520289
0.110133 -3.267586 -11.385264
0.109609 -3.136295 -11.254518
0.108318 -2.978939 -11.112348
0.135661 -4.119625 -12.191328
0.113232 -3.939354 -12.022725
0.109371 -2.820112 -10.970116
0.111824 -2.663136 -10.816305
0.113265 -3.745136 -11.864154
0.107244 -3.567693 -11.672584
0.106667 -1.958553 -10.725901
0.111261 -1.883898 -10.824960
0.100896 -2.519788 -10.655089
0.097907 -2.412717 -10.597286
0.103138 -1.810945 -10.906752
0.131811 -1.720442 -10.985978
0.115340 -2.310603 -10.457112
0.117845 -2.223213 -10.479112
0.076481 -1.415796 -11.409546
0.080942 -1.368879 -11.464382
0.073922 -1.301371 -11.531021
0.083589 -1.237172 -11.609026
0.069032 -1.670150 -11.133021
0.086847 -1.598500 -11.194735
0.090636 -1.202261 -11.665429
0.085665 -1.112890 -11.746215
0.072732 -1.575323 -11.239628
0.076955 -1.495052 -11.304382
0.090010 -1.045112 -11.842581
0.059995 -1.004134 -11.895795
0.085026 -2.132643 -10.571553
0.083741 -2.035645 -10.676836
0.065043 -3.402967 -11.513965
0.069996 -3.268819 -11.386025
0.078313 -3.115941 -11.236894
0.081678 -2.980486 -11.130186
0.085622 -4.102676 -12.196854
0.089101 -3.949009 -12.012739
0.073763 -2.838102 -10.978723
0.088274 -2.648799 -10.823000
0.080547 -3.771031 -11.865162
0.084695 -3.588251 -11.679197
0.068631 -1.949881 -10.775670
0.081242 -1.896813 -10.856839
0.080818 -2.508236 -10.650936
0.079382 -2.425390 -10.586455
0.094026 -1.812811 -10.941773
0.064000 -1.739487 -11.058089
0.082113 -2.294843 -10.459203
0.063099 -2.214811 -10.437953
0.037973 -1.435837 -11.426159
0.054765 -1.368997 -11.509121
0.060546 -1.319665 -11.566873
0.047260 -1.258783 -11.653698
0.046821 -1.655891 -11.153150
0.046652 -1.606304 -11.216007
0.050209 -1.197819 -11.709207
0.060596 -1.106917 -11.806141
