# .PCD v0.7 - Point Cloud Data file format
VERSION 0.7
FIELDS x y z rgb label
SIZE 4 4 4 4 4
TYPE F F F F U
COUNT 1 1 1 1 1
WIDTH 737
HEIGHT 1
VIEWPOINT 0 0 0 1 0 0 0
POINTS 737
DATA ascii
-0.332254 -2.842625 -11.013284 1.880790849211783e-38 1700951363
-0.330473 -2.697455 -10.954251 1.880790849211783e-38 1700951363
-0.356932 -3.753023 -11.831286 1.880790849211783e-38 1700951363
-0.358156 -3.629934 -11.871871 1.880790849211783e-38 1700951363
-0.339195 -2.051244 -11.243347 1.880790849211783e-38 1700951363
-0.341460 -1.963097 -11.318444 1.880790849211783e-38 1700951363
-0.322416 -2.513664 -10.687175 1.880790849211783e-38 1700951363
-0.323109 -2.453358 -10.710147 1.880790849211783e-38 1700951363
-0.340563 -1.865595 -11.288712 1.880790849211783e-38 1700951363
-0.345966 -1.794344 -11.467792 1.880790849211783e-38 1700951363
-0.327623 -2.383250 -10.859771 1.880790849211783e-38 1700951363
-0.330887 -2.326244 -10.967962 1.880790849211783e-38 1700951363
-0.397904 -1.497264 -11.989590 1.880790849211783e-38 1700951363
-0.399934 -1.443283 -12.050738 1.880790849211783e-38 1700951363
-0.398838 -1.368047 -12.017717 1.880790849211783e-38 1700951363
-0.406410 -1.308864 -12.245893 1.880790849211783e-38 1700951363
-0.387659 -1.752566 -11.680869 1.880790849211783e-38 1700951363
-0.390080 -1.686583 -11.753814 1.880790849211783e-38 1700951363
-0.408867 -1.261342 -12.319921 1.880790849211783e-38 1700951363
-0.391853 -1.629047 -11.807239 1.880790849211783e-38 1700951363
-0.392830 -1.565325 -11.836702 1.880790849211783e-38 1700951363
-0.364251 -2.204609 -10.975541 1.880790849211783e-38 1700951363
-0.372924 -2.139890 -11.236869 1.880790849211783e-38 1700951363
-0.384231 -3.412424 -11.577586 1.880790849211783e-38 1700951363
-0.377285 -3.264709 -11.368302 1.880790849211783e-38 1700951363
-0.375561 -3.138687 -11.316330 1.880790849211783e-38 1700951363
-0.370546 -2.996300 -11.165231 1.880790849211783e-38 1700951363
-0.400921 -3.963393 -12.080495 1.880790849211783e-38 1700951363
-0.365650 -2.844036 -11.017698 1.880790849211783e-38 1700951363
-0.363685 -2.698762 -10.958511 1.880790849211783e-38 1700951363
-0.392825 -3.755047 -11.836539 1.880790849211783e-38 1700951363
-0.394165 -3.631826 -11.876924 1.880790849211783e-38 1700951363
-0.374446 -2.058629 -11.282746 1.880790849211783e-38 1700951363
-0.376963 -1.970248 -11.358584 1.880790849211783e-38 1700951363
-0.354818 -2.514879 -10.691316 1.880790849211783e-38 1700951363
-0.356634 -2.461815 -10.746039 1.880790849211783e-38 1700951363
-0.375999 -1.872524 -11.329555 1.880790849211783e-38 1700951363
-0.381968 -1.801024 -11.509384 1.880790849211783e-38 1700951363
-0.361622 -2.391505 -10.896346 1.880790849211783e-38 1700951363
-0.365231 -2.334337 -11.005071 1.880790849211783e-38 1700951363
-0.435728 -1.503018 -12.034405 1.880790849211783e-38 1700951363
-0.437961 -1.448862 -12.096056 1.880790849211783e-38 1700951363
-0.436787 -1.373419 -12.063645 1.880790849211783e-38 1700951363
-0.445074 -1.313985 -12.292519 1.880790849211783e-38 1700951363
-0.424465 -1.759119 -11.723316 1.880790849211783e-38 1700951363
-0.427128 -1.692937 -11.796860 1.880790849211783e-38 1700951363
-0.429081 -1.635228 -11.850800 1.880790849211783e-38 1700951363
-0.430167 -1.571323 -11.880810 1.880790849211783e-38 1700951363
-0.398774 -2.212517 -11.013759 1.880790849211783e-38 1700951363
-0.408265 -2.147545 -11.275887 1.880790849211783e-38 1700951363
-0.419368 -3.414240 -11.582536 1.880790849211783e-38 1700951363
-0.411786 -3.266443 -11.373150 1.880790849211783e-38 1700951363
-0.409899 -3.140320 -11.321035 1.880790849211783e-38 1700951363
-0.404424 -2.997843 -11.169814 1.880790849211783e-38 1700951363
-0.437595 -3.965605 -12.085973 1.880790849211783e-38 1700951363
-0.399078 -2.845483 -11.022149 1.880790849211783e-38 1700951363
-0.396929 -2.700101 -10.962801 1.880790849211783e-38 1700951363
-0.428756 -3.757124 -11.841845 1.880790849211783e-38 1700951363
-0.430211 -3.633766 -11.882024 1.880790849211783e-38 1700951363
-0.409949 -2.066082 -11.322413 1.880790849211783e-38 1700951363
-0.412722 -1.977465 -11.398999 1.880790849211783e-38 1700951363
-0.387511 -2.517818 -10.702692 1.880790849211783e-38 1700951363
-0.390388 -2.470348 -10.782157 1.880790849211783e-38 1700951363
-0.411697 -1.879517 -11.370675 1.880790849211783e-38 1700951363
-0.418235 -1.807767 -11.551268 1.880790849211783e-38 1700951363
-0.395855 -2.399833 -10.933149 1.880790849211783e-38 1700951363
-0.399811 -2.342504 -11.042416 1.880790849211783e-38 1700951363
-0.473847 -1.508829 -12.079554 1.880790849211783e-38 1700951363
-0.476285 -1.454497 -12.141718 1.880790849211783e-38 1700951363
-0.475038 -1.378845 -12.109922 1.880790849211783e-38 1700951363
-0.484044 -1.319158 -12.339502 1.880790849211783e-38 1700951363
-0.461550 -1.765735 -11.766069 1.880790849211783e-38 1700951363
-0.464458 -1.699352 -11.840219 1.880790849211783e-38 1700951363
-0.466595 -1.641470 -11.894681 1.880790849211783e-38 1700951363
-0.467794 -1.577379 -11.925244 1.880790849211783e-38 1700951363
-0.433548 -2.220498 -11.052230 1.880790849211783e-38 1700951363
-0.443862 -2.155272 -11.315169 1.880790849211783e-38 1700951363
-0.454546 -3.416101 -11.587532 1.880790849211783e-38 1700951363
-0.446329 -3.268220 -11.378045 1.880790849211783e-38 1700951363
-0.444278 -3.141994 -11.325780 1.880790849211783e-38 1700951363
-0.438341 -2.999424 -11.174434 1.880790849211783e-38 1700951363
-0.432544 -2.846965 -11.026636 1.880790849211783e-38 1700951363
-0.430209 -2.701474 -10.967128 1.880790849211783e-38 1700951363
-0.464732 -3.759252 -11.847205 1.880790849211783e-38 1700951363
-0.466300 -3.635755 -11.887174 1.880790849211783e-38 1700951363
-0.445713 -2.073607 -11.362354 1.880790849211783e-38 1700951363
-0.448747 -1.984750 -11.439696 1.880790849211783e-38 1700951363
-0.421245 -2.526554 -10.738605 1.880790849211783e-38 1700951363
-0.424379 -2.478958 -10.818507 1.880790849211783e-38 1700951363
-0.447664 -1.886577 -11.412091 1.880790849211783e-38 1700951363
-0.454778 -1.814575 -11.593447 1.880790849211783e-38 1700951363
-0.430330 -2.408239 -10.970195 1.880790849211783e-38 1700951363
-0.434637 -2.350745 -11.080007 1.880790849211783e-38 1700951363
-0.512261 -1.514696 -12.125039 1.880790849211783e-38 1700951363
-0.514909 -1.460188 -12.187723 1.880790849211783e-38 1700951363
-0.513592 -1.384324 -12.156551 1.880790849211783e-38 1700951363
-0.523322 -1.324382 -12.386847 1.880790849211783e-38 1700951363
-0.498914 -1.772415 -11.809131 1.880790849211783e-38 1700951363
-0.502073 -1.705831 -11.883897 1.880790849211783e-38 1700951363
-0.504396 -1.647772 -11.938885 1.880790849211783e-38 1700951363
-0.505711 -1.583495 -11.970010 1.880790849211783e-38 1700951363
-0.468573 -2.228553 -11.090958 1.880790849211783e-38 1700951363
-0.479716 -2.163070 -11.354717 1.880790849211783e-38 1700951363
-0.489765 -3.418007 -11.592571 1.880790849211783e-38 1700951363
-0.480910 -3.270041 -11.382985 1.880790849211783e-38 1700951363
-0.478696 -3.143707 -11.330563 1.880790849211783e-38 1700951363
-0.472296 -3.001045 -11.179099 1.880790849211783e-38 1700951363
-0.466046 -2.848483 -11.031160 1.880790849211783e-38 1700951363
-0.463525 -2.702880 -10.971488 1.880790849211783e-38 1700951363
-0.500751 -3.761431 -11.852616 1.880790849211783e-38 1700951363
-0.502431 -3.637792 -11.892374 1.880790849211783e-38 1700951363
-0.481738 -2.081201 -11.402567 1.880790849211783e-38 1700951363
-0.485038 -1.992105 -11.480674 1.880790849211783e-38 1700951363
-0.455213 -2.535369 -10.774748 1.880790849211783e-38 1700951363
-0.458608 -2.487646 -10.855087 1.880790849211783e-38 1700951363
-0.483902 -1.893704 -11.453796 1.880790849211783e-38 1700951363
-0.491597 -1.821448 -11.635931 1.880790849211783e-38 1700951363
-0.465046 -2.416720 -11.007478 1.880790849211783e-38 1700951363
-0.469709 -2.359062 -11.117843 1.880790849211783e-38 1700951363
-0.550974 -1.520622 -12.170868 1.880790849211783e-38 1700951363
-0.553836 -1.465934 -12.234075 1.880790849211783e-38 1700951363
-0.552454 -1.389858 -12.203537 1.880790849211783e-38 1700951363
-0.536562 -1.779160 -11.852505 1.880790849211783e-38 1700951363
-0.539975 -1.712371 -11.927888 1.880790849211783e-38 1700951363
-0.542488 -1.654136 -11.983412 1.880790849211783e-38 1700951363
-0.543923 -1.589670 -12.015104 1.880790849211783e-38 1700951363
-0.503852 -2.236682 -11.129947 1.880790849211783e-38 1700951363
-0.515830 -2.170942 -11.394536 1.880790849211783e-38 1700951363
-0.525025 -3.419959 -11.597660 1.880790849211783e-38 1700951363
-0.515533 -3.271905 -11.387969 1.880790849211783e-38 1700951363
-0.513153 -3.145462 -11.335391 1.880790849211783e-38 1700951363
-0.506290 -3.002703 -11.183800 1.880790849211783e-38 1700951363
-0.499587 -2.850038 -11.035724 1.880790849211783e-38 1700951363
-0.496878 -2.704319 -10.975883 1.880790849211783e-38 1700951363
-0.536815 -3.763664 -11.858085 1.880790849211783e-38 1700951363
-0.538605 -3.639877 -11.897620 1.880790849211783e-38 1700951363
-0.518027 -2.088867 -11.443056 1.880790849211783e-38 1700951363
-0.521598 -1.999529 -11.521940 1.880790849211783e-38 1700951363
-0.489419 -2.544264 -10.811121 1.880790849211783e-38 1700951363
-0.493076 -2.496413 -10.891906 1.880790849211783e-38 1700951363
-0.520414 -1.900899 -11.495798 1.880790849211783e-38 1700951363
-0.528695 -1.828387 -11.678719 1.880790849211783e-38 1700951363
-0.500007 -2.425280 -11.045005 1.880790849211783e-38 1700951363
-0.505028 -2.367456 -11.155929 1.880790849211783e-38 1700951363
-0.589989 -1.526605 -12.217036 1.880790849211783e-38 1700951363
-0.593067 -1.471738 -12.280773 1.880790849211783e-38 1700951363
-0.591623 -1.395446 -12.250878 1.880790849211783e-38 1700951363
-0.574494 -1.785969 -11.896190 1.880790849211783e-38 1700951363
-0.578165 -1.718975 -11.972197 1.880790849211783e-38 1700951363
-0.580873 -1.660561 -12.028263 1.880790849211783e-38 1700951363
-0.582431 -1.595906 -12.060535 1.880790849211783e-38 1700951363
-0.539386 -2.244887 -11.169198 1.880790849211783e-38 1700951363
-0.552204 -2.178887 -11.434621 1.880790849211783e-38 1700951363
-0.560326 -3.421955 -11.602795 1.880790849211783e-38 1700951363
-0.550194 -3.273811 -11.392999 1.880790849211783e-38 1700951363
-0.547647 -3.147257 -11.340261 1.880790849211783e-38 1700951363
-0.540321 -3.004401 -11.188546 1.880790849211783e-38 1700951363
-0.533163 -2.851628 -11.040324 1.880790849211783e-38 1700951363
-0.530264 -2.705792 -10.980310 1.880790849211783e-38 1700951363
-0.572921 -3.765947 -11.863607 1.880790849211783e-38 1700951363
-0.574819 -3.642011 -11.902914 1.880790849211783e-38 1700951363
-0.554580 -2.096605 -11.483824 1.880790849211783e-38 1700951363
-0.558428 -2.007023 -11.563490 1.880790849211783e-38 1700951363
-0.523862 -2.553238 -10.847723 1.880790849211783e-38 1700951363
-0.527785 -2.505259 -10.928957 1.880790849211783e-38 1700951363
-0.557201 -1.908163 -11.538096 1.880790849211783e-38 1700951363
-0.566073 -1.835392 -11.721809 1.880790849211783e-38 1700951363
-0.535213 -2.433916 -11.082774 1.880790849211783e-38 1700951363
-0.540597 -2.375926 -11.194263 1.880790849211783e-38 1700951363
-0.629314 -1.532649 -12.263559 1.880790849211783e-38 1700951363
-0.632613 -1.477599 -12.327836 1.880790849211783e-38 1700951363
-0.631112 -1.401092 -12.298592 1.880790849211783e-38 1700951363
-0.612721 -1.792845 -11.940197 1.880790849211783e-38 1700951363
-0.616654 -1.725644 -12.016842 1.880790849211783e-38 1700951363
-0.619559 -1.667050 -12.073454 1.880790849211783e-38 1700951363
-0.621245 -1.602203 -12.106308 1.880790849211783e-38 1700951363
-0.575184 -2.253168 -11.208716 1.880790849211783e-38 1700951363
-0.588848 -2.186907 -11.474987 1.880790849211783e-38 1700951363
-0.595672 -3.423998 -11.607978 1.880790849211783e-38 1700951363
-0.584901 -3.275763 -11.398076 1.880790849211783e-38 1700951363
-0.582186 -3.149093 -11.345174 1.880790849211783e-38 1700951363
-0.574394 -3.006137 -11.193327 1.880790849211783e-38 1700951363
-0.566781 -2.853255 -11.044966 1.880790849211783e-38 1700951363
-0.563692 -2.707299 -10.984775 1.880790849211783e-38 1700951363
-0.609076 -3.768284 -11.869184 1.880790849211783e-38 1700951363
-0.611082 -3.644194 -11.908261 1.880790849211783e-38 1700951363
-0.591408 -2.104415 -11.524876 1.880790849211783e-38 1700951363
-0.595537 -2.014589 -11.605339 1.880790849211783e-38 1700951363
-0.558550 -2.562294 -10.884564 1.880790849211783e-38 1700951363
-0.562742 -2.514186 -10.966253 1.880790849211783e-38 1700951363
-0.594273 -1.915496 -11.580698 1.880790849211783e-38 1700951363
-0.603742 -1.842466 -11.765220 1.880790849211783e-38 1700951363
-0.570672 -2.442633 -11.120796 1.880790849211783e-38 1700951363
-0.576423 -2.384475 -11.232854 1.880790849211783e-38 1700951363
-0.668952 -1.538753 -12.310438 1.880790849211783e-38 1700951363
-0.672474 -1.483520 -12.375258 1.880790849211783e-38 1700951363
-0.670921 -1.406794 -12.346676 1.880790849211783e-38 1700951363
-0.651241 -1.799788 -11.984526 1.880790849211783e-38 1700951363
-0.655441 -1.732379 -12.061816 1.880790849211783e-38 1700951363
-0.658548 -1.673604 -12.118985 1.880790849211783e-38 1700951363
-0.660365 -1.608563 -12.152428 1.880790849211783e-38 1700951363
-0.611246 -2.261527 -11.248507 1.880790849211783e-38 1700951363
-0.625762 -2.195003 -11.515631 1.880790849211783e-38 1700951363
-0.631064 -3.426087 -11.613210 1.880790849211783e-38 1700951363
-0.619652 -3.277758 -11.403202 1.880790849211783e-38 1700951363
-0.616768 -3.150971 -11.350129 1.880790849211783e-38 1700951363
-0.608510 -3.007912 -11.198153 1.880790849211783e-38 1700951363
-0.600440 -2.854918 -11.049641 1.880790849211783e-38 1700951363
-0.597159 -2.708839 -10.989272 1.880790849211783e-38 1700951363
-0.645280 -3.770673 -11.874816 1.880790849211783e-38 1700951363
-0.647390 -3.646425 -11.913655 1.880790849211783e-38 1700951363
-0.628511 -2.112301 -11.566216 1.880790849211783e-38 1700951363
-0.632927 -2.022227 -11.647483 1.880790849211783e-38 1700951363
-0.593484 -2.571433 -10.921647 1.880790849211783e-38 1700951363
-0.597948 -2.523195 -11.003795 1.880790849211783e-38 1700951363
-0.631629 -1.922900 -11.623612 1.880790849211783e-38 1700951363
-0.641700 -1.849608 -11.808946 1.880790849211783e-38 1700951363
-0.606386 -2.451430 -11.159067 1.880790849211783e-38 1700951363
-0.612507 -2.393104 -11.271705 1.880790849211783e-38 1700951363
-0.708902 -1.544917 -12.357673 1.880790849211783e-38 1700951363
-0.712653 -1.489499 -12.423047 1.880790849211783e-38 1700951363
-0.690058 -1.806798 -12.029180 1.880790849211783e-38 1700951363
-0.694530 -1.739179 -12.107122 1.880790849211783e-38 1700951363
-0.697841 -1.680222 -12.164855 1.880790849211783e-38 1700951363
-0.699794 -1.614986 -12.198896 1.880790849211783e-38 1700951363
-0.647573 -2.269964 -11.288568 1.880790849211783e-38 1700951363
-0.662946 -2.203174 -11.556554 1.880790849211783e-38 1700951363
-0.666499 -3.428221 -11.618486 1.880790849211783e-38 1700951363
-0.654445 -3.279796 -11.408370 1.880790849211783e-38 1700951363
-0.651391 -3.152889 -11.355127 1.880790849211783e-38 1700951363
-0.642665 -3.009726 -11.203017 1.880790849211783e-38 1700951363
-0.634137 -2.856618 -11.054359 1.880790849211783e-38 1700951363
-0.630664 -2.710413 -10.993806 1.880790849211783e-38 1700951363
-0.683743 -3.648706 -11.919099 1.880790849211783e-38 1700951363
-0.665888 -2.120260 -11.607846 1.880790849211783e-38 1700951363
-0.670597 -2.029938 -11.689926 1.880790849211783e-38 1700951363
-0.628665 -2.580654 -10.958965 1.880790849211783e-38 1700951363
-0.633404 -2.532285 -11.041580 1.880790849211783e-38 1700951363
-0.669272 -1.930376 -11.666834 1.880790849211783e-38 1700951363
-0.679951 -1.856819 -11.852987 1.880790849211783e-38 1700951363
-0.642354 -2.460308 -11.197595 1.880790849211783e-38 1700951363
-0.648849 -2.401812 -11.310813 1.880790849211783e-38 1700951363
-0.749177 -1.551144 -12.405277 1.880790849211783e-38 1700951363
-0.753159 -1.495540 -12.471210 1.880790849211783e-38 1700951363
-0.729181 -1.813878 -12.074171 1.880790849211783e-38 1700951363
-0.733928 -1.746046 -12.152771 1.880790849211783e-38 1700951363
-0.737449 -1.686905 -12.211074 1.880790849211783e-38 1700951363
-0.739542 -1.621474 -12.245724 1.880790849211783e-38 1700951363
-0.684173 -2.278480 -11.328907 1.880790849211783e-38 1700951363
-0.700410 -2.211424 -11.597768 1.880790849211783e-38 1700951363
-0.701983 -3.430403 -11.623814 1.880790849211783e-38 1700951363
-0.689287 -3.281878 -11.413586 1.880790849211783e-38 1700951363
-0.686061 -3.154850 -11.360170 1.880790849211783e-38 1700951363
-0.676867 -3.011579 -11.207924 1.880790849211783e-38 1700951363
-0.667880 -2.858355 -11.059114 1.880790849211783e-38 1700951363
-0.664212 -2.712021 -10.998374 1.880790849211783e-38 1700951363
-0.720148 -3.651037 -11.924596 1.880790849211783e-38 1700951363
-0.703551 -2.128297 -11.649775 1.880790849211783e-38 1700951363
-0.708558 -2.037724 -11.732679 1.880790849211783e-38 1700951363
-0.664101 -2.589961 -10.996534 1.880790849211783e-38 1700951363
-0.669118 -2.541460 -11.079616 1.880790849211783e-38 1700951363
-0.707211 -1.937924 -11.710373 1.880790849211783e-38 1700951363
-0.718503 -1.864101 -11.897360 1.880790849211783e-38 1700951363
-0.678586 -2.469269 -11.236382 1.880790849211783e-38 1700951363
-0.685459 -2.410601 -11.350191 1.880790849211783e-38 1700951363
-0.789777 -1.557434 -12.453252 1.880790849211783e-38 1700951363
-0.793995 -1.501641 -12.519751 1.880790849211783e-38 1700951363
-0.768611 -1.821028 -12.119500 1.880790849211783e-38 1700951363
-0.773638 -1.752982 -12.198770 1.880790849211783e-38 1700951363
-0.777372 -1.693655 -12.257648 1.880790849211783e-38 1700951363
-0.779609 -1.628026 -12.292912 1.880790849211783e-38 1700951363
-0.721048 -2.287077 -11.369530 1.880790849211783e-38 1700951363
-0.738155 -2.219752 -11.639272 1.880790849211783e-38 1700951363
-0.737516 -3.432629 -11.629187 1.880790849211783e-38 1700951363
-0.724176 -3.284004 -11.418849 1.880790849211783e-38 1700951363
-0.720777 -3.156852 -11.365255 1.880790849211783e-38 1700951363
-0.711113 -3.013471 -11.212873 1.880790849211783e-38 1700951363
-0.701666 -2.860128 -11.063910 1.880790849211783e-38 1700951363
-0.699747 -2.721225 -11.033642 1.880790849211783e-38 1700951363
-0.756602 -3.653417 -11.930140 1.880790849211783e-38 1700951363
-0.741499 -2.136410 -11.692002 1.880790849211783e-38 1700951363
-0.746810 -2.045584 -11.775739 1.880790849211783e-38 1700951363
-0.699792 -2.599353 -11.034350 1.880790849211783e-38 1700951363
-0.705091 -2.550719 -11.117906 1.880790849211783e-38 1700951363
-0.745446 -1.945545 -11.754232 1.880790849211783e-38 1700951363
-0.757358 -1.871455 -11.942063 1.880790849211783e-38 1700951363
-0.715081 -2.478313 -11.275431 1.880790849211783e-38 1700951363
-0.722336 -2.419473 -11.389836 1.880790849211783e-38 1700951363
-0.830708 -1.563787 -12.501603 1.880790849211783e-38 1700951363
-0.835164 -1.507804 -12.568673 1.880790849211783e-38 1700951363
-0.808352 -1.828247 -12.165167 1.880790849211783e-38 1700951363
-0.813664 -1.759987 -12.245114 1.880790849211783e-38 1700951363
-0.817616 -1.700472 -12.304580 1.880790849211783e-38 1700951363
-0.820000 -1.634644 -12.340466 1.880790849211783e-38 1700951363
-0.758202 -2.295755 -11.410435 1.880790849211783e-38 1700951363
-0.776185 -2.228160 -11.681070 1.880790849211783e-38 1700951363
-0.773098 -3.434902 -11.634609 1.880790849211783e-38 1700951363
-0.759114 -3.286175 -11.424160 1.880790849211783e-38 1700951363
-0.755540 -3.158895 -11.370384 1.880790849211783e-38 1700951363
-0.745405 -3.015402 -11.217861 1.880790849211783e-38 1700951363
-0.735497 -2.861938 -11.068743 1.880790849211783e-38 1700951363
-0.735636 -2.730934 -11.070839 1.880790849211783e-38 1700951363
-0.793107 -3.655846 -11.935736 1.880790849211783e-38 1700951363
-0.779737 -2.144602 -11.734532 1.880790849211783e-38 1700951363
-0.785358 -2.053521 -11.819118 1.880790849211783e-38 1700951363
-0.735741 -2.608831 -11.072417 1.880790849211783e-38 1700951363
-0.741325 -2.560064 -11.156454 1.880790849211783e-38 1700951363
-0.783982 -1.953241 -11.798417 1.880790849211783e-38 1700951363
-0.796520 -1.878880 -11.987097 1.880790849211783e-38 1700951363
-0.751843 -2.487441 -11.314745 1.880790849211783e-38 1700951363
-0.759485 -2.428428 -11.429755 1.880790849211783e-38 1700951363
-0.871969 -1.570204 -12.550329 1.880790849211783e-38 1700951363
-0.848406 -1.835539 -12.211183 1.880790849211783e-38 1700951363
-0.854008 -1.767061 -12.291812 1.880790849211783e-38 1700951363
-0.858180 -1.707358 -12.351870 1.880790849211783e-38 1700951363
-0.860718 -1.641328 -12.388390 1.880790849211783e-38 1700951363
-0.795634 -2.304515 -11.451627 1.880790849211783e-38 1700951363
-0.814499 -2.236647 -11.723162 1.880790849211783e-38 1700951363
-0.808727 -3.437222 -11.640080 1.880790849211783e-38 1700951363
-0.794097 -3.288391 -11.429519 1.880790849211783e-38 1700951363
-0.790349 -3.160980 -11.375560 1.880790849211783e-38 1700951363
-0.779742 -3.017374 -11.222896 1.880790849211783e-38 1700951363
-0.769370 -2.863784 -11.073612 1.880790849211783e-38 1700951363
-0.771778 -2.740730 -11.108274 1.880790849211783e-38 1700951363
-0.829661 -3.658325 -11.941382 1.880790849211783e-38 1700951363
-0.818265 -2.152872 -11.777369 1.880790849211783e-38 1700951363
-0.824201 -2.061535 -11.862806 1.880790849211783e-38 1700951363
-0.771949 -2.618397 -11.110737 1.880790849211783e-38 1700951363
-0.777822 -2.569496 -11.195261 1.880790849211783e-38 1700951363
-0.822820 -1.961012 -11.842929 1.880790849211783e-38 1700951363
-0.835989 -1.886379 -12.032470 1.880790849211783e-38 1700951363
-0.788873 -2.496654 -11.354322 1.880790849211783e-38 1700951363
-0.796906 -2.437467 -11.469946 1.880790849211783e-38 1700951363
-0.913573 -1.576686 -12.599448 1.880790849211783e-38 1700951363
-0.888782 -1.842903 -12.257547 1.880790849211783e-38 1700951363
-0.894679 -1.774206 -12.338875 1.880790849211783e-38 1700951363
-0.899077 -1.714313 -12.399533 1.880790849211783e-38 1700951363
-0.901772 -1.648080 -12.436690 1.880790849211783e-38 1700951363
-0.833354 -2.313359 -11.493115 1.880790849211783e-38 1700951363
-0.853109 -2.245217 -11.765560 1.880790849211783e-38 1700951363
-0.844411 -3.439589 -11.645602 1.880790849211783e-38 1700951363
-0.829135 -3.290651 -11.434925 1.880790849211783e-38 1700951363
-0.825208 -3.163107 -11.380776 1.880790849211783e-38 1700951363
-0.814128 -3.019383 -11.227966 1.880790849211783e-38 1700951363
-0.803293 -2.865668 -11.078527 1.880790849211783e-38 1700951363
-0.808182 -2.750617 -11.145960 1.880790849211783e-38 1700951363
-0.866270 -3.660855 -11.947082 1.880790849211783e-38 1700951363
-0.857094 -2.161222 -11.820518 1.880790849211783e-38 1700951363
-0.863351 -2.069627 -11.906822 1.880790849211783e-38 1700951363
-0.808426 -2.628051 -11.149317 1.880790849211783e-38 1700951363
-0.814590 -2.579015 -11.234331 1.880790849211783e-38 1700951363
-0.861970 -1.968859 -11.887775 1.880790849211783e-38 1700951363
-0.875777 -1.893952 -12.078190 1.880790849211783e-38 1700951363
-0.826180 -2.505954 -11.394179 1.880790849211783e-38 1700951363
-0.834609 -2.446592 -11.510418 1.880790849211783e-38 1700951363
-0.955521 -1.583235 -12.648957 1.880790849211783e-38 1700951363
-0.929483 -1.850341 -12.304271 1.880790849211783e-38 1700951363
-0.935680 -1.781424 -12.386304 1.880790849211783e-38 1700951363
-0.940308 -1.721339 -12.447567 1.880790849211783e-38 1700951363
-0.943164 -1.654901 -12.485373 1.880790849211783e-38 1700951363
-0.871364 -2.322288 -11.534900 1.880790849211783e-38 1700951363
-0.892014 -2.253870 -11.808265 1.880790849211783e-38 1700951363
-0.880147 -3.442002 -11.651172 1.880790849211783e-38 1700951363
-0.864224 -3.292956 -11.440380 1.880790849211783e-38 1700951363
-0.860119 -3.165277 -11.386040 1.880790849211783e-38 1700951363
-0.848564 -3.021434 -11.233082 1.880790849211783e-38 1700951363
-0.837263 -2.867589 -11.083479 1.880790849211783e-38 1700951363
-0.844848 -2.760596 -11.183899 1.880790849211783e-38 1700951363
-0.896223 -2.169654 -11.863985 1.880790849211783e-38 1700951363
-0.902809 -2.077798 -11.951164 1.880790849211783e-38 1700951363
-0.845170 -2.637795 -11.188156 1.880790849211783e-38 1700951363
-0.851630 -2.588624 -11.273670 1.880790849211783e-38 1700951363
-0.901433 -1.976784 -11.932957 1.880790849211783e-38 1700951363
-0.915884 -1.901600 -12.124258 1.880790849211783e-38 1700951363
-0.863765 -2.515341 -11.434308 1.880790849211783e-38 1700951363
-0.872593 -2.455803 -11.551175 1.880790849211783e-38 1700951363
-0.970513 -1.857853 -12.351356 1.880790849211783e-38 1700951363
-0.977014 -1.788714 -12.434100 1.880790849211783e-38 1700951363
-0.981877 -1.728435 -12.495980 1.880790849211783e-38 1700951363
-0.984899 -1.661791 -12.534443 1.880790849211783e-38 1700951363
-0.909666 -2.331302 -11.576983 1.880790849211783e-38 1700951363
-0.931219 -2.262606 -11.851279 1.880790849211783e-38 1700951363
-0.915937 -3.444463 -11.656792 1.880790849211783e-38 1700951363
-0.899365 -3.295305 -11.445881 1.880790849211783e-38 1700951363
-0.895080 -3.167488 -11.391349 1.880790849211783e-38 1700951363
-0.883050 -3.023525 -11.238243 1.880790849211783e-38 1700951363
-0.871281 -2.869548 -11.088473 1.880790849211783e-38 1700951363
-0.881780 -2.770666 -11.222087 1.880790849211783e-38 1700951363
-0.935658 -2.178167 -11.907769 1.880790849211783e-38 1700951363
-0.942578 -2.086050 -11.995838 1.880790849211783e-38 1700951363
-0.882187 -2.647630 -11.227263 1.880790849211783e-38 1700951363
-0.888945 -2.598322 -11.313278 1.880790849211783e-38 1700951363
-0.941214 -1.984787 -11.978484 1.880790849211783e-38 1700951363
-0.956316 -1.909325 -12.170682 1.880790849211783e-38 1700951363
-0.901631 -2.524817 -11.474719 1.880790849211783e-38 1700951363
-0.910863 -2.465101 -11.592217 1.880790849211783e-38 1700951363
-1.011873 -1.865441 -12.398803 1.880790849211783e-38 1700951363
-1.018684 -1.796077 -12.482268 1.880790849211783e-38 1700951363
-1.023785 -1.735603 -12.544771 1.880790849211783e-38 1700951363
-1.026979 -1.668751 -12.583901 1.880790849211783e-38 1700951363
-0.948262 -2.340402 -11.619366 1.880790849211783e-38 1700951363
-0.970725 -2.271426 -11.894607 1.880790849211783e-38 1700951363
-0.951779 -3.446970 -11.662459 1.880790849211783e-38 1700951363
-0.934557 -3.297699 -11.451431 1.880790849211783e-38 1700951363
-0.930090 -3.169742 -11.396699 1.880790849211783e-38 1700951363
-0.917583 -3.025654 -11.243443 1.880790849211783e-38 1700951363
-0.905347 -2.871543 -11.093503 1.880790849211783e-38 1700951363
-0.918977 -2.780829 -11.260530 1.880790849211783e-38 1700951363
-0.975399 -2.186763 -11.951876 1.880790849211783e-38 1700951363
-0.982659 -2.094382 -12.040845 1.880790849211783e-38 1700951363
-0.919476 -2.657556 -11.266633 1.880790849211783e-38 1700951363
-0.926537 -2.608111 -11.353155 1.880790849211783e-38 1700951363
-0.981314 -1.992869 -12.024356 1.880790849211783e-38 1700951363
-0.997073 -1.917126 -12.217455 1.880790849211783e-38 1700951363
-0.939778 -2.534382 -11.515408 1.880790849211783e-38 1700951363
-0.949420 -2.474488 -11.633546 1.880790849211783e-38 1700951363
-1.053574 -1.873105 -12.446626 1.880790849211783e-38 1700951363
-1.060701 -1.803515 -12.530824 1.880790849211783e-38 1700951363
-1.066045 -1.742845 -12.593959 1.880790849211783e-38 1700951363
-1.069415 -1.675784 -12.633763 1.880790849211783e-38 1700951363
-0.987163 -2.349591 -11.662063 1.880790849211783e-38 1700951363
-1.010542 -2.280333 -11.938254 1.880790849211783e-38 1700951363
-0.987680 -3.449525 -11.668177 1.880790849211783e-38 1700951363
-0.969807 -3.300139 -11.457032 1.880790849211783e-38 1700951363
-0.965157 -3.172037 -11.402094 1.880790849211783e-38 1700951363
-0.952172 -3.027825 -11.248689 1.880790849211783e-38 1700951363
-0.939465 -2.873577 -11.098577 1.880790849211783e-38 1700951363
-0.956450 -2.791087 -11.299236 1.880790849211783e-38 1700951363
-1.015456 -2.195444 -11.996313 1.880790849211783e-38 1700951363
-1.023064 -2.102798 -12.086194 1.880790849211783e-38 1700951363
-0.957046 -2.667576 -11.306278 1.880790849211783e-38 1700951363
-0.964414 -2.617993 -11.393317 1.880790849211783e-38 1700951363
-1.021743 -2.001032 -12.070583 1.880790849211783e-38 1700951363
-1.038166 -1.925006 -12.264597 1.880790849211783e-38 1700951363
-0.978218 -2.544039 -11.556388 1.880790849211783e-38 1700951363
-0.988272 -2.483964 -11.675172 1.880790849211783e-38 1700951363
-1.095618 -1.880847 -12.494823 1.880790849211783e-38 1700951363
-1.103066 -1.811030 -12.579762 1.880790849211783e-38 1700951363
-1.108658 -1.750161 -12.643540 1.880790849211783e-38 1700951363
-1.112208 -1.682888 -12.684026 1.880790849211783e-38 1700951363
-1.026368 -2.358869 -11.705070 1.880790849211783e-38 1700951363
-1.050670 -2.289326 -11.982224 1.880790849211783e-38 1700951363
-1.023639 -3.452127 -11.673947 1.880790849211783e-38 1700951363
-1.005114 -3.302625 -11.462682 1.880790849211783e-38 1700951363
-1.000278 -3.174377 -11.407538 1.880790849211783e-38 1700951363
-0.986813 -3.030035 -11.253976 1.880790849211783e-38 1700951363
-0.973635 -2.875648 -11.103691 1.880790849211783e-38 1700951363
-0.994199 -2.801441 -11.338205 1.880790849211783e-38 1700951363
-1.055831 -2.204210 -12.041085 1.880790849211783e-38 1700951363
-1.063794 -2.111296 -12.131887 1.880790849211783e-38 1700951363
-0.994900 -2.677691 -11.346197 1.880790849211783e-38 1700951363
-1.002577 -2.627969 -11.433756 1.880790849211783e-38 1700951363
-1.062503 -2.009277 -12.117167 1.880790849211783e-38 1700951363
-1.079596 -1.932965 -12.312108 1.880790849211783e-38 1700951363
-1.016949 -2.553788 -11.597656 1.880790849211783e-38 1700951363
-1.027422 -2.493532 -11.717096 1.880790849211783e-38 1700951363
-1.138006 -1.888668 -12.543402 1.880790849211783e-38 1700951363
-1.145780 -1.818620 -12.629089 1.880790849211783e-38 1700951363
-1.151626 -1.757552 -12.693517 1.880790849211783e-38 1700951363
-1.155362 -1.690066 -12.734698 1.880790849211783e-38 1700951363
-1.065878 -2.368236 -11.748389 1.880790849211783e-38 1700951363
-1.091112 -2.298408 -12.026522 1.880790849211783e-38 1700951363
-1.059653 -3.454779 -11.679770 1.880790849211783e-38 1700951363
-1.040474 -3.305155 -11.468379 1.880790849211783e-38 1700951363
-1.035452 -3.176758 -11.413026 1.880790849211783e-38 1700951363
-1.021506 -3.032286 -11.259307 1.880790849211783e-38 1700951363
-1.010631 -2.885682 -11.139437 1.880790849211783e-38 1700951363
-1.032224 -2.811891 -11.377437 1.880790849211783e-38 1700951363
-1.096526 -2.213062 -12.086191 1.880790849211783e-38 1700951363
-1.104849 -2.119879 -12.177929 1.880790849211783e-38 1700951363
-1.033036 -2.687900 -11.386392 1.880790849211783e-38 1700951363
-1.041028 -2.638038 -11.474479 1.880790849211783e-38 1700951363
-1.103595 -2.017603 -12.164106 1.880790849211783e-38 1700951363
-1.121366 -1.941004 -12.359988 1.880790849211783e-38 1700951363
-1.055974 -2.563629 -11.639217 1.880790849211783e-38 1700951363
-1.066870 -2.503191 -11.759320 1.880790849211783e-38 1700951363
-1.180751 -1.896569 -12.592370 1.880790849211783e-38 1700951363
-1.188857 -1.826289 -12.678821 1.880790849211783e-38 1700951363
-1.194960 -1.765020 -12.743904 1.880790849211783e-38 1700951363
-1.105705 -2.377695 -11.792033 1.880790849211783e-38 1700951363
-1.131877 -2.307579 -12.071150 1.880790849211783e-38 1700951363
-1.075896 -3.307732 -11.474125 1.880790849211783e-38 1700951363
-1.070686 -3.179183 -11.418562 1.880790849211783e-38 1700951363
-1.056257 -3.034578 -11.264682 1.880790849211783e-38 1700951363
-1.048129 -2.896476 -11.177993 1.880790849211783e-38 1700951363
-1.070534 -2.822440 -11.416944 1.880790849211783e-38 1700951363
-1.137550 -2.222003 -12.131643 1.880790849211783e-38 1700951363
-1.146241 -2.128548 -12.224329 1.880790849211783e-38 1700951363
-1.071465 -2.698206 -11.426874 1.880790849211783e-38 1700951363
-1.079775 -2.648203 -11.515491 1.880790849211783e-38 1700951363
-1.145030 -2.026014 -12.211421 1.880790849211783e-38 1700951363
-1.163486 -1.949126 -12.408251 1.880790849211783e-38 1700951363
-1.095302 -2.573566 -11.681082 1.880790849211783e-38 1700951363
-1.106626 -2.512944 -11.801855 1.880790849211783e-38 1700951363
-1.223853 -1.904550 -12.641731 1.880790849211783e-38 1700951363
-1.232297 -1.834038 -12.728954 1.880790849211783e-38 1700951363
-1.238662 -1.772565 -12.794703 1.880790849211783e-38 1700951363
-1.145850 -2.387247 -11.836003 1.880790849211783e-38 1700951363
-1.172968 -2.316841 -12.116119 1.880790849211783e-38 1700951363
-1.111378 -3.310354 -11.479924 1.880790849211783e-38 1700951363
-1.105977 -3.181651 -11.424141 1.880790849211783e-38 1700951363
-1.091065 -3.036911 -11.270101 1.880790849211783e-38 1700951363
-1.085906 -2.907371 -11.216814 1.880790849211783e-38 1700951363
-1.109131 -2.833088 -11.456721 1.880790849211783e-38 1700951363
-1.178905 -2.231033 -12.177444 1.880790849211783e-38 1700951363
-1.187971 -2.137304 -12.271089 1.880790849211783e-38 1700951363
-1.110188 -2.708611 -11.467641 1.880790849211783e-38 1700951363
-1.118820 -2.658466 -11.556797 1.880790849211783e-38 1700951363
-1.186810 -2.034510 -12.259104 1.880790849211783e-38 1700951363
-1.205959 -1.957330 -12.456899 1.880790849211783e-38 1700951363
-1.134934 -2.583598 -11.723246 1.880790849211783e-38 1700951363
-1.146692 -2.522792 -11.844699 1.880790849211783e-38 1700951363
-1.267318 -1.912614 -12.691490 1.880790849211783e-38 1700951363
-1.276105 -1.841866 -12.779495 1.880790849211783e-38 1700951363
-1.282738 -1.780188 -12.845921 1.880790849211783e-38 1700951363
-1.186316 -2.396893 -11.880301 1.880790849211783e-38 1700951363
-1.214388 -2.326195 -12.161426 1.880790849211783e-38 1700951363
-1.146920 -3.313023 -11.485772 1.880790849211783e-38 1700951363
-1.141328 -3.184163 -11.429768 1.880790849211783e-38 1700951363
-1.125929 -3.039284 -11.275564 1.880790849211783e-38 1700951363
-1.123966 -2.918367 -11.255901 1.880790849211783e-38 1700951363
-1.148019 -2.843836 -11.496778 1.880790849211783e-38 1700951363
-1.220596 -2.240153 -12.223597 1.880790849211783e-38 1700951363
-1.230044 -2.146148 -12.318211 1.880790849211783e-38 1700951363
-1.149209 -2.719114 -11.508695 1.880790849211783e-38 1700951363
-1.158166 -2.668827 -11.598396 1.880790849211783e-38 1700951363
-1.228941 -2.043092 -12.307166 1.880790849211783e-38 1700951363
-1.248789 -1.965618 -12.505936 1.880790849211783e-38 1700951363
-1.174874 -2.593727 -11.765718 1.880790849211783e-38 1700951363
-1.187070 -2.532735 -11.887856 1.880790849211783e-38 1700951363
-1.227105 -2.406632 -11.924932 1.880790849211783e-38 1700951363
-1.256138 -2.335641 -12.207079 1.880790849211783e-38 1700951363
-1.176735 -3.186717 -11.435440 1.880790849211783e-38 1700951363
-1.160850 -3.041698 -11.281073 1.880790849211783e-38 1700951363
-1.162310 -2.929466 -11.295256 1.880790849211783e-38 1700951363
-1.187197 -2.854686 -11.537111 1.880790849211783e-38 1700951363
-1.262624 -2.249363 -12.270103 1.880790849211783e-38 1700951363
-1.272461 -2.155081 -12.365701 1.880790849211783e-38 1700951363
-1.188527 -2.729717 -11.550040 1.880790849211783e-38 1700951363
-1.197815 -2.679288 -11.640297 1.880790849211783e-38 1700951363
-1.271422 -2.051761 -12.355607 1.880790849211783e-38 1700951363
-1.291978 -1.973990 -12.555365 1.880790849211783e-38 1700951363
-1.215123 -2.603953 -11.808496 1.880790849211783e-38 1700951363
-1.227763 -2.542774 -11.931329 1.880790849211783e-38 1700951363
-1.268227 -2.416469 -11.969901 1.880790849211783e-38 1700951363
-1.298231 -2.345182 -12.253084 1.880790849211783e-38 1700951363
-1.212206 -3.189315 -11.441161 1.880790849211783e-38 1700951363
-1.195833 -3.044154 -11.286626 1.880790849211783e-38 1700951363
-1.200946 -2.940670 -11.334885 1.880790849211783e-38 1700951363
-1.226676 -2.865639 -11.577733 1.880790849211783e-38 1700951363
-1.305000 -2.258667 -12.316975 1.880790849211783e-38 1700951363
-1.315234 -2.164104 -12.413568 1.880790849211783e-38 1700951363
-1.228155 -2.740422 -11.591685 1.880790849211783e-38 1700951363
-1.237777 -2.689849 -11.682502 1.880790849211783e-38 1700951363
-1.255692 -2.614280 -11.851593 1.880790849211783e-38 1700951363
-1.268781 -2.552913 -11.975131 1.880790849211783e-38 1700951363
-1.309684 -2.426403 -12.015215 1.880790849211783e-38 1700951363
-1.340666 -2.354818 -12.299444 1.880790849211783e-38 1700951363
-1.247740 -3.191958 -11.446931 1.880790849211783e-38 1700951363
-1.230877 -3.046652 -11.292225 1.880790849211783e-38 1700951363
-1.239877 -2.951981 -11.374792 1.880790849211783e-38 1700951363
-1.266457 -2.876697 -11.618642 1.880790849211783e-38 1700951363
-1.268091 -2.751231 -11.633635 1.880790849211783e-38 1700951363
-1.278052 -2.700513 -11.725016 1.880790849211783e-38 1700951363
-1.296582 -2.624707 -11.895007 1.880790849211783e-38 1700951363
-1.310125 -2.563151 -12.019258 1.880790849211783e-38 1700951363
-1.283335 -3.194644 -11.452746 1.880790849211783e-38 1700951363
-1.266068 -3.049403 -11.298656 1.880790849211783e-38 1700951363
-1.279103 -2.963397 -11.414977 1.880790849211783e-38 1700951363
-1.306541 -2.887860 -11.659841 1.880790849211783e-38 1700951363
-1.308339 -2.762143 -11.675884 1.880790849211783e-38 1700951363
-1.318642 -2.711279 -11.767838 1.880790849211783e-38 1700951363
-1.337793 -2.635236 -11.938744 1.880790849211783e-38 1700951363
-1.351797 -2.573489 -12.063713 1.880790849211783e-38 1700951363
-1.318997 -3.197375 -11.458609 1.880790849211783e-38 1700951363
-1.305142 -3.061136 -11.338244 1.880790849211783e-38 1700951363
-1.318633 -2.974923 -11.455449 1.880790849211783e-38 1700951363
-1.346937 -2.899131 -11.701337 1.880790849211783e-38 1700951363
-1.348907 -2.773162 -11.718448 1.880790849211783e-38 1700951363
-1.359558 -2.722152 -11.810981 1.880790849211783e-38 1700951363
-1.354725 -3.200151 -11.464523 1.880790849211783e-38 1700951363
-1.344514 -3.072980 -11.378109 1.880790849211783e-38 1700951363
-1.358469 -2.986558 -11.496207 1.880790849211783e-38 1700951363
-1.387648 -2.910511 -11.743135 1.880790849211783e-38 1700951363
-1.384188 -3.084936 -11.418254 1.880790849211783e-38 1700951363
-1.398615 -2.998304 -11.537258 1.880790849211783e-38 1700951363
1.394293 -3.384909 -11.405648 1.880790849211783e-38 1700951363
1.391758 -3.292007 -11.384917 1.880790849211783e-38 1700951363
1.414889 -3.232308 -11.574131 1.880790849211783e-38 1700951363
1.457700 -2.472708 -12.230476 1.880790849211783e-38 1700951363
1.488991 -2.394623 -12.493014 1.880790849211783e-38 1700951363
1.356868 -3.377394 -11.384473 1.880790849211783e-38 1700951363
1.351172 -3.276865 -11.336679 1.880790849211783e-38 1700951363
1.373627 -3.217439 -11.525084 1.880790849211783e-38 1700951363
1.381747 -3.131447 -11.593208 1.880790849211783e-38 1700951363
1.393610 -3.037978 -11.692746 1.880790849211783e-38 1700951363
1.420357 -2.953994 -11.917156 1.880790849211783e-38 1700951363
1.494676 -2.303082 -12.540715 1.880790849211783e-38 1700951363
1.503927 -2.203041 -12.618338 1.880790849211783e-38 1700951363
1.419911 -2.820630 -11.913417 1.880790849211783e-38 1700951363
1.429506 -2.765617 -11.993918 1.880790849211783e-38 1700951363
1.500723 -2.094663 -12.591449 1.880790849211783e-38 1700951363
1.522253 -2.011655 -12.772094 1.880790849211783e-38 1700951363
1.447663 -2.683225 -12.146265 1.880790849211783e-38 1700951363
1.460804 -2.616748 -12.256522 1.880790849211783e-38 1700951363
1.413809 -2.460526 -12.174537 1.880790849211783e-38 1700951363
1.444173 -2.382851 -12.436007 1.880790849211783e-38 1700951363
1.322388 -3.377033 -11.387297 1.880790849211783e-38 1700951363
1.310957 -3.261886 -11.288861 1.880790849211783e-38 1700951363
1.332743 -3.202729 -11.476464 1.880790849211783e-38 1700951363
1.340562 -3.116995 -11.543799 1.880790849211783e-38 1700951363
1.352016 -3.023831 -11.642424 1.880790849211783e-38 1700951363
1.377953 -2.940215 -11.865780 1.880790849211783e-38 1700951363
1.449609 -2.291636 -12.482817 1.880790849211783e-38 1700951363
1.458505 -2.191977 -12.559419 1.880790849211783e-38 1700951363
1.377393 -2.807213 -11.860956 1.880790849211783e-38 1700951363
1.386673 -2.752407 -11.940865 1.880790849211783e-38 1700951363
1.455268 -2.083957 -12.531543 1.880790849211783e-38 1700951363
1.476128 -2.001350 -12.711178 1.880790849211783e-38 1700951363
1.404257 -2.670351 -12.092280 1.880790849211783e-38 1700951363
1.416975 -2.604141 -12.201803 1.880790849211783e-38 1700951363
1.370342 -2.448478 -12.119116 1.880790849211783e-38 1700951363
1.399788 -2.371211 -12.379538 1.880790849211783e-38 1700951363
1.287917 -3.376715 -11.390161 1.880790849211783e-38 1700951363
1.271101 -3.247063 -11.241446 1.880790849211783e-38 1700951363
1.292225 -3.188175 -11.428259 1.880790849211783e-38 1700951363
1.299750 -3.102696 -11.494816 1.880790849211783e-38 1700951363
1.310800 -3.009834 -11.592540 1.880790849211783e-38 1700951363
1.335938 -2.926585 -11.814857 1.880790849211783e-38 1700951363
1.404982 -2.280319 -12.425469 1.880790849211783e-38 1700951363
1.413529 -2.181038 -12.501062 1.880790849211783e-38 1700951363
1.335272 -2.793941 -11.808960 1.880790849211783e-38 1700951363
1.344242 -2.739341 -11.888290 1.880790849211783e-38 1700951363
1.410269 -2.073376 -12.472223 1.880790849211783e-38 1700951363
1.430467 -1.991164 -12.650856 1.880790849211783e-38 1700951363
1.361258 -2.657619 -12.038784 1.880790849211783e-38 1700951363
1.373561 -2.591674 -12.147586 1.880790849211783e-38 1700951363
1.403919 -1.925069 -12.760668 1.880790849211783e-38 1700951363
1.327295 -2.436566 -12.064210 1.880790849211783e-38 1700951363
1.355833 -2.359702 -12.323599 1.880790849211783e-38 1700951363
1.253456 -3.376440 -11.393065 1.880790849211783e-38 1700951363
1.231603 -3.232395 -11.194431 1.880790849211783e-38 1700951363
1.252070 -3.173774 -11.380467 1.880790849211783e-38 1700951363
1.259308 -3.088549 -11.446254 1.880790849211783e-38 1700951363
1.269962 -2.995987 -11.543089 1.880790849211783e-38 1700951363
1.294309 -2.913103 -11.764385 1.880790849211783e-38 1700951363
1.360791 -2.269132 -12.368668 1.880790849211783e-38 1700951363
1.368999 -2.170225 -12.443272 1.880790849211783e-38 1700951363
1.293544 -2.780814 -11.757433 1.880790849211783e-38 1700951363
1.302209 -2.726419 -11.836192 1.880790849211783e-38 1700951363
1.365721 -2.062915 -12.413473 1.880790849211783e-38 1700951363
1.385266 -1.981097 -12.591129 1.880790849211783e-38 1700951363
1.318666 -2.645028 -11.985780 1.880790849211783e-38 1700951363
1.330558 -2.579345 -12.093865 1.880790849211783e-38 1700951363
1.358577 -1.915412 -12.700809 1.880790849211783e-38 1700951363
1.284662 -2.424786 -12.009814 1.880790849211783e-38 1700951363
1.312300 -2.348323 -12.268184 1.880790849211783e-38 1700951363
1.219005 -3.376208 -11.396008 1.880790849211783e-38 1700951363
1.196990 -3.230116 -11.190198 1.880790849211783e-38 1700951363
1.212274 -3.159525 -11.333078 1.880790849211783e-38 1700951363
1.219230 -3.074552 -11.398108 1.880790849211783e-38 1700951363
1.229494 -2.982288 -11.494069 1.880790849211783e-38 1700951363
1.253058 -2.899765 -11.714355 1.880790849211783e-38 1700951363
1.317029 -2.258070 -12.312400 1.880790849211783e-38 1700951363
1.324906 -2.159535 -12.386029 1.880790849211783e-38 1700951363
1.252203 -2.767829 -11.706362 1.880790849211783e-38 1700951363
1.260567 -2.713637 -11.784557 1.880790849211783e-38 1700951363
1.321617 -2.052575 -12.355291 1.880790849211783e-38 1700951363
1.340518 -1.971146 -12.531982 1.880790849211783e-38 1700951363
1.276473 -2.632574 -11.933251 1.880790849211783e-38 1700951363
1.287959 -2.567152 -12.040633 1.880790849211783e-38 1700951363
1.313689 -1.905867 -12.641536 1.880790849211783e-38 1700951363
1.242441 -2.413137 -11.955921 1.880790849211783e-38 1700951363
1.269186 -2.337072 -12.213287 1.880790849211783e-38 1700951363
1.184566 -3.376018 -11.398993 1.880790849211783e-38 1700951363
1.163172 -3.229934 -11.193129 1.880790849211783e-38 1700951363
1.172833 -3.145426 -11.286097 1.880790849211783e-38 1700951363
1.179514 -3.060704 -11.350380 1.880790849211783e-38 1700951363
1.189396 -2.968736 -11.445477 1.880790849211783e-38 1700951363
1.212184 -2.886572 -11.664767 1.880790849211783e-38 1700951363
1.273694 -2.247134 -12.256666 1.880790849211783e-38 1700951363
1.281245 -2.148966 -12.329334 1.880790849211783e-38 1700951363
1.211247 -2.754986 -11.655749 1.880790849211783e-38 1700951363
1.219316 -2.700996 -11.733390 1.880790849211783e-38 1700951363
1.277955 -2.042352 -12.297669 1.880790849211783e-38 1700951363
1.296217 -1.961309 -12.473411 1.880790849211783e-38 1700951363
1.234676 -2.620258 -11.881202 1.880790849211783e-38 1700951363
1.245763 -2.555094 -11.987892 1.880790849211783e-38 1700951363
1.269241 -1.896431 -12.582833 1.880790849211783e-38 1700951363
1.276213 -1.823668 -12.651957 1.880790849211783e-38 1700951363
1.200617 -2.401617 -11.902517 1.880790849211783e-38 1700951363
1.226478 -2.325945 -12.158894 1.880790849211783e-38 1700951363
1.150131 -3.375872 -11.402018 1.880790849211783e-38 1700951363
1.129360 -3.229794 -11.196098 1.880790849211783e-38 1700951363
1.133738 -3.131473 -11.239501 1.880790849211783e-38 1700951363
1.140148 -3.046999 -11.303048 1.880790849211783e-38 1700951363
1.149655 -2.955326 -11.397297 1.880790849211783e-38 1700951363
1.171675 -2.873518 -11.615602 1.880790849211783e-38 1700951363
1.230770 -2.236319 -12.201447 1.880790849211783e-38 1700951363
1.238004 -2.138516 -12.273168 1.880790849211783e-38 1700951363
1.170664 -2.742280 -11.605576 1.880790849211783e-38 1700951363
1.178440 -2.688490 -11.682669 1.880790849211783e-38 1700951363
1.234719 -2.032246 -12.240595 1.880790849211783e-38 1700951363
1.252351 -1.951584 -12.415398 1.880790849211783e-38 1700951363
1.193263 -2.608075 -11.829612 1.880790849211783e-38 1700951363
1.203955 -2.543167 -11.935617 1.880790849211783e-38 1700951363
1.225229 -1.887102 -12.524692 1.880790849211783e-38 1700951363
1.231919 -1.814638 -12.593083 1.880790849211783e-38 1700951363
1.159188 -2.390223 -11.849599 1.880790849211783e-38 1700951363
1.184172 -2.314941 -12.104996 1.880790849211783e-38 1700951363
1.115703 -3.375766 -11.405079 1.880790849211783e-38 1700951363
1.095553 -3.229693 -11.199105 1.880790849211783e-38 1700951363
1.094985 -3.117665 -11.193295 1.880790849211783e-38 1700951363
1.101130 -3.033439 -11.256117 1.880790849211783e-38 1700951363
1.110268 -2.942057 -11.349524 1.880790849211783e-38 1700951363
1.131529 -2.860604 -11.566862 1.880790849211783e-38 1700951363
1.144501 -3.592663 -11.699471 1.880790849211783e-38 1700951363
1.188255 -2.225625 -12.146737 1.880790849211783e-38 1700951363
1.195180 -2.128183 -12.217527 1.880790849211783e-38 1700951363
1.130451 -2.729710 -11.555840 1.880790849211783e-38 1700951363
1.137940 -2.676118 -11.632394 1.880790849211783e-38 1700951363
1.191906 -2.022253 -12.184058 1.880790849211783e-38 1700951363
1.208915 -1.941970 -12.357934 1.880790849211783e-38 1700951363
1.152230 -2.596024 -11.778480 1.880790849211783e-38 1700951363
1.162535 -2.531370 -11.883813 1.880790849211783e-38 1700951363
1.181649 -1.877881 -12.467109 1.880790849211783e-38 1700951363
1.188063 -1.805712 -12.534778 1.880790849211783e-38 1700951363
1.192693 -1.742986 -12.583626 1.880790849211783e-38 1700951363
1.118151 -2.378954 -11.797160 1.880790849211783e-38 1700951363
1.142266 -2.304059 -12.051596 1.880790849211783e-38 1700951363
1.081282 -3.375704 -11.408181 1.880790849211783e-38 1700951363
1.061755 -3.229634 -11.202154 1.880790849211783e-38 1700951363
1.057138 -3.105664 -11.153446 1.880790849211783e-38 1700951363
1.062459 -3.020021 -11.209583 1.880790849211783e-38 1700951363
1.071234 -2.928928 -11.302161 1.880790849211783e-38 1700951363
1.091743 -2.847826 -11.518541 1.880790849211783e-38 1700951363
1.109193 -3.592596 -11.702652 1.880790849211783e-38 1700951363
