# .PCD v0.7 - Point Cloud Data file format
VERSION 0.7
FIELDS x y z rgb label
SIZE 4 4 4 4 4
TYPE F F F F U
COUNT 1 1 1 1 1
WIDTH 1516
HEIGHT 1
VIEWPOINT 0 0 0 1 0 0 0
POINTS 1516
DATA ascii
-0.100324 -4.143899 -12.200688
-0.110918 -3.958980 -12.086504
-0.123339 -2.822447 -11.002198
-0.045358 -2.687593 -10.807624
-0.079668 -3.757839 -11.933923
-0.105372 -3.568116 -11.696425
-0.097171 -2.022572 -10.945937
-0.101380 -1.850157 -11.022883
-0.092612 -2.487819 -10.670411
-0.112828 -2.380724 -10.574899
-0.106966 -1.865111 -11.166404
-0.141501 -1.737588 -11.257113
-0.093606 -2.321773 -10.553364
-0.118215 -2.268818 -10.652946
-0.143840 -1.469682 -11.673382
-0.129847 -1.385565 -11.730756
-0.130305 -1.306842 -11.823423
-0.152346 -1.248171 -11.907314
-0.148673 -1.700742 -11.336385
-0.147299 -1.608005 -11.451125
-0.142988 -1.211650 -11.949988
-0.158732 -1.177356 -12.051524
-0.145195 -1.585647 -11.523637
-0.150966 -1.512361 -11.569347
-0.101601 -2.171391 -10.807497
-0.102657 -2.045096 -10.921940
-0.110439 -3.369276 -11.531824
-0.137874 -3.256876 -11.437628
-0.123337 -3.121856 -11.291281
-0.156555 -2.977403 -11.176914
-0.167895 -4.132763 -12.245873
-0.151045 -3.949515 -12.070876
-0.097622 -2.836021 -10.993134
-0.146175 -2.660545 -10.813967
-0.158744 -3.762004 -11.887588
-0.149103 -3.582613 -11.700780
-0.108661 -2.013629 -10.996284
-0.126209 -1.899536 -11.095458
-0.139418 -2.515550 -10.711114
-0.128637 -2.429390 -10.612313
-0.113459 -1.848999 -11.170904
-0.106230 -1.763687 -11.308878
-0.135433 -2.336924 -10.596517
-0.088212 -2.238752 -10.701950
-0.193112 -1.469502 -11.714681
-0.158585 -1.402351 -11.767776
-0.208173 -1.372632 -11.823771
-0.194294 -1.251579 -11.918301
-0.153420 -1.721882 -11.402120
-0.167600 -1.615241 -11.467631
-0.172123 -1.198241 -12.003521
-0.173525 -1.141143 -12.065817
-0.185106 -1.583416 -11.547217
-0.155096 -1.510278 -11.593178
-0.192072 -2.194793 -10.831677
-0.171746 -2.111213 -10.952600
-0.153057 -3.417581 -11.574610
-0.161052 -3.281867 -11.432021
-0.170429 -3.122783 -11.263850
-0.136291 -3.013258 -11.148480
-0.160977 -4.125141 -12.243538
-0.187847 -3.968216 -12.092258
-0.154856 -2.840873 -10.964004
-0.130612 -2.660042 -10.855166
-0.140148 -3.804402 -11.898342
-0.158207 -3.558727 -11.699293
-0.160700 -1.990373 -11.054237
-0.167193 -1.911889 -11.126600
-0.146670 -2.520709 -10.686166
-0.164235 -2.439038 -10.584185
-0.159156 -1.861806 -11.219572
-0.178270 -1.773054 -11.327359
-0.133083 -2.293191 -10.654645
-0.162209 -2.300071 -10.707713
-0.181173 -1.468315 -11.748147
-0.191295 -1.401965 -11.808130
-0.217071 -1.357769 -11.866672
-0.216179 -1.290793 -11.993197
-0.179998 -1.752470 -11.431419
-0.219797 -1.631335 -11.524598
-0.192618 -1.208720 -12.025508
-0.238803 -1.153314 -12.079009
-0.206960 -1.594288 -11.583718
-0.186072 -1.517773 -11.657034
-0.194453 -2.148197 -10.890930
-0.174853 -2.097716 -10.964178
-0.218009 -3.400212 -11.541228
-0.197289 -3.277225 -11.435196
-0.176882 -3.145341 -11.281650
-0.191653 -2.958304 -11.129635
-0.228435 -4.140545 -12.236748
-0.225361 -3.960089 -12.076065
-0.172319 -2.835838 -11.012722
-0.225797 -2.684677 -10.821651
-0.221500 -3.784327 -11.873009
-0.188134 -3.579427 -11.713470
-0.191118 -2.005624 -11.067202
-0.193717 -1.922644 -11.184127
-0.199368 -2.530170 -10.704611
-0.188842 -2.412334 -10.573444
-0.194362 -1.826537 -11.294096
-0.205458 -1.794069 -11.384411
-0.178444 -2.354839 -10.714252
-0.192491 -2.306432 -10.789005
-0.267959 -1.473614 -11.796277
-0.221725 -1.413511 -11.821472
-0.280980 -1.377707 -11.930734
-0.247613 -1.293586 -11.998817
-0.208175 -1.747054 -11.465978
-0.254244 -1.665522 -11.564236
-0.258275 -1.263409 -12.097715
-0.252623 -1.212383 -12.167394
-0.224090 -1.631054 -11.659439
-0.232746 -1.561972 -11.692112
-0.217313 -2.179089 -10.909661
-0.232387 -2.079579 -11.006092
-0.284184 -3.410848 -11.542556
-0.217027 -3.242593 -11.480678
-0.253158 -3.097745 -11.290810
-0.241162 -2.995426 -11.155267
-0.262301 -4.111064 -12.251909
-0.272308 -3.955111 -12.096017
-0.218413 -2.828564 -10.996020
-0.222636 -2.650292 -10.864675
-0.245296 -3.723907 -11.870588
-0.262851 -3.579700 -11.758896
-0.227522 -2.033150 -11.121374
-0.256256 -1.927668 -11.223071
-0.208547 -2.520049 -10.701806
-0.242004 -2.410507 -10.646991
-0.273874 -1.864872 -11.314742
-0.224092 -1.803216 -11.410743
-0.223727 -2.362901 -10.715436
-0.207162 -2.272543 -10.763850
-0.291048 -1.494307 -11.797758
-0.283088 -1.427688 -11.900278
-0.270952 -1.382506 -11.942021
-0.311718 -1.292512 -12.073807
-0.258417 -1.757328 -11.529283
-0.271353 -1.666671 -11.603557
-0.288631 -1.229348 -12.128375
-0.263541 -1.604618 -11.683556
-0.283477 -1.564341 -11.731859
-0.253236 -2.217042 -10.933121
-0.244550 -2.124039 -11.072301
-0.258038 -3.374473 -11.530858
-0.263104 -3.305280 -11.417945
-0.254580 -3.134067 -11.290427
-0.260667 -2.984371 -11.160147
-0.289344 -3.953795 -12.077307
-0.280728 -2.863226 -11.043343
-0.246610 -2.657506 -10.862086
-0.306728 -3.751201 -11.903377
-0.284091 -3.607294 -11.719516
-0.255330 -2.042893 -11.155149
-0.294825 -1.932159 -11.270211
-0.249481 -2.511392 -10.715413
-0.239173 -2.421161 -10.650460
-0.279509 -1.894813 -11.339561
-0.275279 -1.800666 -11.472371
-0.271674 -2.370272 -10.758880
-0.265387 -2.314165 -10.854145
-0.297763 -1.498151 -11.881920
-0.325648 -1.423543 -11.951451
-0.336050 -1.354392 -12.001139
-0.352022 -1.360332 -12.125412
-0.305175 -1.760643 -11.589675
-0.313156 -1.665714 -11.631259
-0.299966 -1.230686 -12.164028
-0.292867 -1.600347 -11.717244
-0.324131 -1.570044 -11.775550
-0.296171 -2.201193 -10.959449
-0.279039 -2.084071 -11.079507
-0.313333 -3.429779 -11.561193
-0.318139 -3.283530 -11.417140
-0.316849 -3.126483 -11.289456
-0.299166 -2.988346 -11.139778
-0.323036 -3.949371 -12.095846
-0.261217 -2.794731 -11.051839
-0.282745 -2.660421 -10.836743
-0.309842 -3.783328 -11.906119
-0.342044 -3.578490 -11.695715
-0.273167 -2.026954 -11.187573
-0.316911 -1.927579 -11.337813
-0.297754 -2.513862 -10.746159
-0.277612 -2.448825 -10.672828
-0.264298 -1.893440 -11.402379
-0.306591 -1.794158 -11.492614
-0.275670 -2.391083 -10.816312
-0.250586 -2.341323 -10.875742
-0.354122 -1.478880 -11.918819
-0.337561 -1.459744 -11.966455
-0.360331 -1.371757 -12.073429
-0.375230 -1.266192 -12.154557
-0.382069 -1.781988 -11.575471
-0.362604 -1.667819 -11.645805
-0.377494 -1.274979 -12.228471
-0.365576 -1.645879 -11.768602
-0.355511 -1.578976 -11.819813
-0.284008 -2.215646 -11.014865
-0.298826 -2.147188 -11.123948
-0.370805 -3.390814 -11.601270
-0.328530 -3.279825 -11.415027
-0.296648 -3.144736 -11.274417
-0.343624 -3.006417 -11.158608
-0.391515 -3.948104 -12.109611
-0.322521 -2.832170 -10.996845
-0.341881 -2.690132 -10.865693
-0.354732 -3.777893 -11.899678
-0.325790 -3.607664 -11.738249
-0.330699 -2.008376 -11.234748
-0.345920 -2.004612 -11.351446
-0.332992 -2.568769 -10.736789
-0.334281 -2.476418 -10.750742
-0.341267 -1.892778 -11.417085
-0.341814 -1.819138 -11.539752
-0.303099 -2.393516 -10.807783
-0.348978 -2.306113 -10.904345
-0.406472 -1.464189 -11.968960
-0.414227 -1.439663 -12.060262
-0.427409 -1.376294 -12.134344
-0.417343 -1.299869 -12.179806
-0.404084 -1.755632 -11.635154
-0.358792 -1.653286 -11.711785
-0.418540 -1.252038 -12.261159
-0.415098 -1.647558 -11.813805
-0.404601 -1.603572 -11.863111
-0.341713 -2.229548 -11.077334
-0.351393 -2.144431 -11.151229
-0.371091 -3.417368 -11.611231
-0.380145 -3.288828 -11.452675
-0.370830 -3.117106 -11.313667
-0.357530 -2.996985 -11.171980
-0.429299 -3.972790 -12.109711
-0.359344 -2.855599 -11.030027
-0.347170 -2.658697 -10.867089
-0.394905 -3.775394 -11.940496
-0.406014 -3.586433 -11.754288
-0.371939 -2.072038 -11.251924
-0.383909 -1.976259 -11.337824
-0.348364 -2.547230 -10.740552
-0.375655 -2.494160 -10.757628
-0.391016 -1.892657 -11.506747
-0.400370 -1.825397 -11.570830
-0.390080 -2.368227 -10.846341
-0.393348 -2.342542 -10.902587
-0.425488 -1.496874 -12.011302
-0.459463 -1.466447 -12.109977
-0.422967 -1.403700 -12.145149
-0.495357 -1.322474 -12.232061
-0.451130 -1.763490 -11.695770
-0.395520 -1.698309 -11.756489
-0.415667 -1.650049 -11.804536
-0.468776 -1.581082 -11.886130
-0.356904 -2.234947 -11.095861
-0.363515 -2.113190 -11.195552
-0.386527 -3.399362 -11.572750
-0.425953 -3.299696 -11.443426
-0.438036 -3.134399 -11.315586
-0.427989 -3.003489 -11.172231
-0.421072 -3.962582 -12.132888
-0.388207 -2.840171 -11.062336
-0.398426 -2.672436 -10.868879
-0.427553 -3.810625 -11.937429
-0.393192 -3.602454 -11.751896
-0.396007 -2.027865 -11.299086
-0.426607 -2.003086 -11.409413
-0.391204 -2.532499 -10.747531
-0.389183 -2.447070 -10.787835
-0.390163 -1.900308 -11.505939
-0.439415 -1.816249 -11.634040
-0.397898 -2.408319 -10.919780
-0.416929 -2.341781 -10.975319
-0.459352 -1.520619 -12.052885
-0.437923 -1.426588 -12.139265
-0.481098 -1.394703 -12.207665
-0.510253 -1.293081 -12.298241
-0.452050 -1.731238 -11.747237
-0.467590 -1.700032 -11.819926
-0.492292 -1.615094 -11.857196
-0.461998 -1.580277 -11.933418
-0.412441 -2.255658 -11.126482
-0.451852 -2.165860 -11.232162
-0.456124 -3.429503 -11.566588
-0.452792 -3.317265 -11.405716
-0.469719 -3.132705 -11.326211
-0.444373 -3.011988 -11.190977
-0.444075 -2.870177 -11.047520
-0.452430 -2.660419 -10.871641
-0.446343 -3.790966 -11.905286
-0.456954 -3.583047 -11.740958
-0.419875 -2.041544 -11.393522
-0.426175 -1.973421 -11.479452
-0.440531 -2.534993 -10.779009
-0.423651 -2.454980 -10.831983
-0.461934 -1.912829 -11.567749
-0.457625 -1.862501 -11.655957
-0.381998 -2.405550 -10.889609
-0.435029 -2.333630 -11.028848
-0.514521 -1.509620 -12.109507
-0.537054 -1.441242 -12.202206
-0.508031 -1.406134 -12.251637
-0.512290 -1.322043 -12.315981
-0.488695 -1.754401 -11.807676
-0.516969 -1.730957 -11.848772
-0.501422 -1.642948 -11.917484
-0.499717 -1.587859 -11.982354
-0.460249 -2.286186 -11.154146
-0.460891 -2.152466 -11.321245
-0.490371 -3.409009 -11.595524
-0.472948 -3.321764 -11.480358
-0.478065 -3.160693 -11.293509
-0.501918 -3.028974 -11.207719
-0.472876 -2.865178 -11.034583
-0.457166 -2.700514 -10.908920
-0.508483 -3.790434 -11.931629
-0.472364 -3.612397 -11.755062
-0.506424 -2.077984 -11.367467
-0.502885 -2.003450 -11.530345
-0.470001 -2.541303 -10.796366
-0.462636 -2.487333 -10.860721
-0.483188 -1.915482 -11.604656
-0.507962 -1.845070 -11.704008
-0.464544 -2.412802 -10.953050
-0.468460 -2.332057 -11.040546
-0.528122 -1.523943 -12.173227
-0.524926 -1.455659 -12.209023
-0.544070 -1.419362 -12.257029
-0.540725 -1.768649 -11.825454
-0.553063 -1.711231 -11.913001
-0.542866 -1.634774 -11.936779
-0.550565 -1.574450 -12.041203
-0.504852 -2.217948 -11.258638
-0.486350 -2.145792 -11.316940
-0.512023 -3.419278 -11.561921
-0.513367 -3.334954 -11.503057
-0.510956 -3.126081 -11.323911
-0.506553 -3.009750 -11.177428
-0.523461 -2.860989 -11.047214
-0.474794 -2.693829 -10.896797
-0.572631 -3.754829 -11.927387
-0.533027 -3.596709 -11.768296
-0.518293 -2.112669 -11.427135
-0.527697 -1.983003 -11.542057
-0.472139 -2.599954 -10.829321
-0.507707 -2.510131 -10.910997
-0.545798 -1.910318 -11.670499
-0.554928 -1.841628 -11.763301
-0.542267 -2.406586 -10.999274
-0.488788 -2.360521 -11.103067
-0.610242 -1.530657 -12.196714
-0.597757 -1.471184 -12.285178
-0.619340 -1.392620 -12.315699
-0.546307 -1.756140 -11.867012
-0.552664 -1.701714 -11.953627
-0.575297 -1.655122 -12.018810
-0.604343 -1.614100 -12.098289
-0.573135 -2.260625 -11.258948
-0.579187 -2.165528 -11.368917
-0.590702 -3.424423 -11.565709
-0.552459 -3.297063 -11.478425
-0.564449 -3.158995 -11.338007
-0.503710 -2.998806 -11.221113
-0.507684 -2.852900 -11.081663
-0.532106 -2.682667 -10.909109
-0.579467 -3.818736 -11.947914
-0.566898 -3.632187 -11.812252
-0.560436 -2.099005 -11.435891
-0.528515 -2.008430 -11.538045
-0.520112 -2.565820 -10.898230
-0.547904 -2.519932 -10.970186
-0.552532 -1.938896 -11.657650
-0.596546 -1.859362 -11.786305
-0.536030 -2.453144 -11.043167
-0.564496 -2.325778 -11.117715
-0.649424 -1.527691 -12.237361
-0.652222 -1.458970 -12.300272
-0.619075 -1.409467 -12.384850
-0.627691 -1.789674 -11.941820
-0.606390 -1.725792 -12.022668
-0.650563 -1.659989 -12.014739
-0.650945 -1.615050 -12.193366
-0.580242 -2.289522 -11.315949
-0.600561 -2.162894 -11.433160
-0.600467 -3.421796 -11.555188
-0.582259 -3.277354 -11.474633
-0.582183 -3.162834 -11.342208
-0.570186 -2.997800 -11.183650
-0.554557 -2.839766 -11.073585
-0.555414 -2.684020 -10.893224
-0.598860 -3.838822 -11.943111
-0.603227 -3.568604 -11.712938
-0.585015 -2.113594 -11.515787
-0.575003 -2.008041 -11.604089
-0.528366 -2.575065 -10.912984
-0.542749 -2.516244 -10.970644
-0.599299 -1.950739 -11.704945
-0.590151 -1.861342 -11.835773
-0.569189 -2.443970 -11.090131
-0.579780 -2.385050 -11.176376
-0.655569 -1.540925 -12.306536
-0.661071 -1.464542 -12.350596
-0.664602 -1.403178 -12.455831
-0.687008 -1.779203 -11.960144
-0.669829 -1.729644 -12.035995
-0.634404 -1.660415 -12.106221
-0.692706 -1.598985 -12.158478
-0.620381 -2.291012 -11.290351
-0.594859 -2.203120 -11.465651
-0.660940 -3.413789 -11.598449
-0.613404 -3.308039 -11.500250
-0.607441 -3.145108 -11.357688
-0.613986 -3.003663 -11.222757
-0.631268 -2.864872 -11.030458
-0.622372 -2.657984 -10.890434
-0.618972 -3.783037 -11.978810
-0.649617 -3.555958 -11.798784
-0.632678 -2.100815 -11.569127
-0.645659 -2.020565 -11.669175
-0.566748 -2.583898 -10.918134
-0.616027 -2.498551 -11.035634
-0.640275 -1.934707 -11.774150
-0.647598 -1.838231 -11.904424
-0.598205 -2.413868 -11.127050
-0.628320 -2.360358 -11.231183
-0.696318 -1.576350 -12.319801
-0.689606 -1.517934 -12.406145
-0.722158 -1.799689 -11.981223
-0.702345 -1.719570 -12.126438
-0.708352 -1.659975 -12.159350
-0.722631 -1.595834 -12.250099
-0.637241 -2.312397 -11.353435
-0.646850 -2.213799 -11.496840
-0.664544 -3.411875 -11.605669
-0.623568 -3.320625 -11.499630
-0.638729 -3.193397 -11.370777
-0.663702 -3.030299 -11.220538
-0.619924 -2.845858 -11.054686
-0.575520 -2.701839 -10.903086
-0.668938 -3.625466 -11.744947
-0.653669 -2.103301 -11.603598
-0.675996 -2.073942 -11.719371
-0.619716 -2.618101 -11.003433
-0.651578 -2.537344 -11.071611
-0.703734 -1.961704 -11.786999
-0.691297 -1.853724 -11.886571
-0.619944 -2.461299 -11.146957
-0.633405 -2.383712 -11.235042
-0.730211 -1.519699 -12.408098
-0.747547 -1.505754 -12.429799
-0.730098 -1.804375 -12.071841
-0.729639 -1.730588 -12.171852
-0.745663 -1.677258 -12.200731
-0.735140 -1.587219 -12.296926
-0.705142 -2.319128 -11.408443
-0.693499 -2.179915 -11.521624
-0.713181 -3.421707 -11.630254
-0.710964 -3.299504 -11.465247
-0.675320 -3.159313 -11.332259
-0.693532 -3.010683 -11.234852
-0.648749 -2.840730 -11.066348
-0.667185 -2.701432 -10.939543
-0.696022 -3.593927 -11.748005
-0.696484 -2.133706 -11.641314
-0.722788 -2.047806 -11.732632
-0.651490 -2.593998 -11.070823
-0.673656 -2.562712 -11.111381
-0.715598 -1.931816 -11.839129
-0.697608 -1.865337 -11.947192
-0.668530 -2.427225 -11.134270
-0.676150 -2.367618 -11.264832
-0.767230 -1.552583 -12.426020
-0.796225 -1.501871 -12.503997
-0.768252 -1.843386 -12.055125
-0.760416 -1.756731 -12.187042
-0.822259 -1.684059 -12.236547
-0.796141 -1.616864 -12.302687
-0.730040 -2.280448 -11.458251
-0.730625 -2.249884 -11.576845
-0.722016 -3.427237 -11.634393
-0.700152 -3.316307 -11.530132
-0.690197 -3.171297 -11.334703
-0.671269 -3.007044 -11.219008
-0.690037 -2.865376 -11.081454
-0.698499 -2.690705 -10.966315
-0.748631 -3.650372 -11.791388
-0.716996 -2.132591 -11.659686
-0.775175 -2.048235 -11.789232
-0.682879 -2.568892 -11.079555
-0.715184 -2.561277 -11.156488
-0.748885 -1.949043 -11.889990
-0.770977 -1.899409 -12.033308
-0.729407 -2.481798 -11.244600
-0.704529 -2.401642 -11.334468
-0.840547 -1.539833 -12.476993
-0.814005 -1.494841 -12.562961
-0.823019 -1.825996 -12.132205
-0.808110 -1.779146 -12.234416
-0.822091 -1.669534 -12.291493
-0.849441 -1.644100 -12.363009
-0.785555 -2.311122 -11.491733
-0.752550 -2.234817 -11.637163
-0.747869 -3.429274 -11.635895
-0.739662 -3.284264 -11.499732
-0.758343 -3.149665 -11.341591
-0.728052 -3.005354 -11.239009
-0.720908 -2.881857 -11.105646
-0.729658 -2.741123 -10.945142
-0.774623 -3.621930 -11.807223
-0.784090 -2.146637 -11.718037
-0.766422 -2.028359 -11.829690
-0.727539 -2.623993 -11.121897
-0.748477 -2.529429 -11.189857
-0.795712 -1.957539 -11.938343
-0.786091 -1.912867 -12.007931
-0.740570 -2.453830 -11.270936
-0.735185 -2.406435 -11.363213
-0.876170 -1.591840 -12.516563
-0.851056 -1.859123 -12.161629
-0.915305 -1.758189 -12.232762
-0.855771 -1.694546 -12.392980
-0.873358 -1.641564 -12.423020
-0.800691 -2.323135 -11.563018
-0.806600 -2.261563 -11.675461
-0.823785 -3.459603 -11.610621
-0.808178 -3.333381 -11.536170
-0.800922 -3.189226 -11.356570
-0.804137 -3.027964 -11.230814
-0.730269 -2.858362 -11.139386
-0.768603 -2.705644 -11.021764
-0.832245 -3.614512 -11.823450
-0.814255 -2.149064 -11.786612
-0.834539 -2.049880 -11.880140
-0.787320 -2.640560 -11.133836
-0.785959 -2.571294 -11.204491
-0.851992 -1.969984 -11.981064
-0.837460 -1.908132 -12.060924
-0.796595 -2.497838 -11.356615
-0.780407 -2.422659 -11.422974
-0.935037 -1.584801 -12.547000
-0.860065 -1.845029 -12.215441
-0.900628 -1.793607 -12.311132
-0.896384 -1.700364 -12.376847
-0.933760 -1.634176 -12.475075
-0.871454 -2.343068 -11.558791
-0.868292 -2.257918 -11.694150
-0.838661 -3.448634 -11.607394
-0.851333 -3.315650 -11.471883
-0.820174 -3.158874 -11.380343
-0.805213 -3.005686 -11.248506
-0.780691 -2.843795 -11.101697
-0.781116 -2.737664 -11.080113
-0.870206 -3.619515 -11.799073
-0.867829 -2.175749 -11.817471
-0.858280 -2.069746 -11.935146
-0.842330 -2.625852 -11.186964
-0.788938 -2.617869 -11.238413
-0.872312 -2.040303 -12.000140
-0.884789 -1.919368 -12.173601
-0.782971 -2.482312 -11.354473
-0.840344 -2.434318 -11.422220
-0.992422 -1.609907 -12.601182
-0.912438 -1.862075 -12.226477
-0.904413 -1.765429 -12.383322
-0.941821 -1.694479 -12.456225
-0.938811 -1.663654 -12.489184
-0.874821 -2.360731 -11.620160
-0.873281 -2.245356 -11.750679
-0.889583 -3.465570 -11.617590
-0.870698 -3.344136 -11.549718
-0.835019 -3.166876 -11.375994
-0.822324 -2.999817 -11.252104
-0.846070 -2.858888 -11.104755
-0.870298 -2.744427 -11.080899
-0.883379 -2.177779 -11.871424
-0.887408 -2.093934 -11.996624
-0.877128 -2.645688 -11.194473
-0.844946 -2.578407 -11.302661
-0.933954 -2.027265 -12.050629
-0.903761 -1.903247 -12.178496
-0.859711 -2.518161 -11.404174
-0.848956 -2.448766 -11.488996
-0.972910 -1.837430 -12.335772
-0.967905 -1.801458 -12.411123
-1.019824 -1.752585 -12.499038
-0.994024 -1.652692 -12.576516
-0.876926 -2.329175 -11.698613
-0.956057 -2.260242 -11.770109
-0.953294 -3.422519 -11.665061
-0.938278 -3.352244 -11.556302
-0.876318 -3.179588 -11.395454
-0.870050 -3.029645 -11.198161
-0.858780 -2.878604 -11.111744
-0.870017 -2.737539 -11.128496
-0.933456 -2.172986 -11.903788
-0.946307 -2.089054 -12.017323
-0.899911 -2.657050 -11.275736
-0.927974 -2.580042 -11.323833
-0.957918 -2.033089 -12.119561
-0.967485 -1.906315 -12.228420
-0.887341 -2.470095 -11.442679
-0.890469 -2.463463 -11.534005
-1.016005 -1.840620 -12.395753
-1.032530 -1.802213 -12.472494
-1.013183 -1.735391 -12.565883
-1.020948 -1.650046 -12.631858
-0.950571 -2.355277 -11.682958
-1.006911 -2.243365 -11.834916
-0.956252 -3.482511 -11.680139
-0.946891 -3.311671 -11.544172
-0.928511 -3.183597 -11.428611
-0.913195 -3.020169 -11.248450
-0.913057 -2.888321 -11.119094
-0.885969 -2.804426 -11.173694
-0.970506 -2.179094 -11.926179
-1.031880 -2.066037 -12.060996
-0.944304 -2.608844 -11.289688
-0.952093 -2.583058 -11.386845
-0.995335 -2.008050 -12.172856
-0.987624 -1.952995 -12.297654
-0.934131 -2.524749 -11.462517
-0.951718 -2.479694 -11.573174
-1.061445 -1.876739 -12.416135
-1.082851 -1.829146 -12.496713
-1.056748 -1.739458 -12.603891
-1.067916 -1.650521 -12.664459
-0.964931 -2.359843 -11.779790
-0.997807 -2.269685 -11.890961
-0.940926 -3.477773 -11.661376
-0.957775 -3.328221 -11.502317
-0.935633 -3.171847 -11.394486
-0.932696 -3.041025 -11.254046
-0.960935 -2.867525 -11.141645
-0.950156 -2.765507 -11.215545
-1.023731 -2.187355 -11.969546
-1.038365 -2.096031 -12.105670
-0.963558 -2.698094 -11.347310
-0.986864 -2.637427 -11.371661
-1.086793 -2.002380 -12.202872
-1.039810 -1.940704 -12.359239
-0.974491 -2.510172 -11.502796
-0.963045 -2.514262 -11.625647
-1.096545 -1.874918 -12.444924
-1.111124 -1.800005 -12.538497
-1.125013 -1.727326 -12.658479
-1.122238 -1.690702 -12.748459
-1.057992 -2.389311 -11.799360
-1.055624 -2.256836 -11.894982
-1.000647 -3.402763 -11.683204
-1.011683 -3.313775 -11.508979
-0.980672 -3.170451 -11.394439
-1.001597 -3.036878 -11.265846
-0.963597 -2.847078 -11.110295
-0.985154 -2.791133 -11.275292
-1.051705 -2.215115 -12.017678
-1.075255 -2.114747 -12.124642
-0.992778 -2.698095 -11.415012
-1.064505 -2.628568 -11.468035
-1.066443 -2.039511 -12.239721
-1.106414 -1.932740 -12.391575
-1.031054 -2.540656 -11.566845
-0.997696 -2.491226 -11.635426
-1.159071 -1.887973 -12.496860
-1.140814 -1.817519 -12.649043
-1.153785 -1.739303 -12.707273
-1.143553 -1.669868 -12.800090
-1.095281 -2.357256 -11.854938
-1.067709 -2.256080 -11.980356
-1.048592 -3.465843 -11.693728
-1.034768 -3.314502 -11.567845
-1.008676 -3.177640 -11.409933
-1.035539 -3.015990 -11.280869
-1.043531 -2.921248 -11.138899
-1.005254 -2.806343 -11.283535
-1.120070 -2.235714 -12.079666
-1.101811 -2.139738 -12.199960
-1.057139 -2.708375 -11.406592
-1.032648 -2.629541 -11.493308
-1.102042 -2.070537 -12.306789
-1.110566 -1.933671 -12.413990
-1.070310 -2.607805 -11.596959
-1.080824 -2.510999 -11.719980
-1.189355 -1.888312 -12.585669
-1.213391 -1.829717 -12.670708
-1.205977 -1.745868 -12.761030
-1.092350 -2.403440 -11.887317
-1.098132 -2.300928 -12.027577
-1.032674 -3.297826 -11.530592
-1.064831 -3.186082 -11.402240
-1.082903 -3.018213 -11.234933
-1.082458 -2.914463 -11.197476
-1.074723 -2.797937 -11.332665
-1.114905 -2.192348 -12.114968
-1.101277 -2.132173 -12.282683
-1.067725 -2.710240 -11.470351
-1.086943 -2.629333 -11.533558
-1.146737 -2.053386 -12.368213
-1.153918 -1.963635 -12.481783
-1.079037 -2.565685 -11.623533
-1.101046 -2.516416 -11.734774
-1.201878 -1.908800 -12.644758
-1.229165 -1.809031 -12.729901
-1.278582 -1.764382 -12.792706
-1.114107 -2.426744 -11.921662
-1.183977 -2.292278 -12.029402
-1.139345 -3.339810 -11.575274
-1.099471 -3.200142 -11.399743
-1.100861 -3.063522 -11.297040
-1.099468 -2.916840 -11.243465
-1.070548 -2.844135 -11.376535
-1.151019 -2.215772 -12.172669
-1.202099 -2.120609 -12.293464
-1.101437 -2.687243 -11.458719
-1.141392 -2.652438 -11.546333
-1.193513 -2.086879 -12.401289
-1.235091 -1.965461 -12.546879
-1.122177 -2.593531 -11.697383
-1.130255 -2.500518 -11.753505
-1.282492 -1.928845 -12.656303
-1.247454 -1.842555 -12.779368
-1.300653 -1.759873 -12.834066
-1.198734 -2.407626 -11.945219
-1.193735 -2.348772 -12.104053
-1.156156 -3.334971 -11.530576
-1.190880 -3.205305 -11.431134
-1.160017 -3.020369 -11.276790
-1.130151 -2.908897 -11.265564
-1.148996 -2.794080 -11.382217
-1.211997 -2.253561 -12.209819
-1.230909 -2.150893 -12.343030
-1.127770 -2.724471 -11.550975
-1.182957 -2.645674 -11.622404
-1.252790 -2.058983 -12.448762
-1.282539 -1.958709 -12.560982
-1.184578 -2.582929 -11.725265
-1.184974 -2.517388 -11.832308
-1.234695 -2.432484 -12.009360
-1.257866 -2.334386 -12.159550
-1.204391 -3.169406 -11.431441
-1.136389 -3.036754 -11.260184
-1.165449 -2.901727 -11.320788
-1.207754 -2.877585 -11.479526
-1.265010 -2.268636 -12.273219
-1.254679 -2.177129 -12.404014
-1.198853 -2.737054 -11.578631
-1.192329 -2.662820 -11.686236
-1.261996 -2.066866 -12.496035
-1.316276 -1.976620 -12.607117
-1.234339 -2.640281 -11.786074
-1.232473 -2.532175 -11.842607
-1.284539 -2.422389 -12.034729
-1.273849 -2.305683 -12.205065
-1.233164 -3.179879 -11.447161
-1.216318 -3.059942 -11.304181
-1.198820 -2.941500 -11.342457
-1.259867 -2.828579 -11.498501
-1.309179 -2.237166 -12.311754
-1.289207 -2.136153 -12.419002
-1.263634 -2.772746 -11.626192
-1.207909 -2.709462 -11.723321
-1.254487 -2.634397 -11.818939
-1.309280 -2.545379 -11.929191
-1.325414 -2.470911 -12.101324
-1.316384 -2.329002 -12.274770
-1.242615 -3.177881 -11.438046
-1.230631 -3.048643 -11.287893
-1.250624 -2.920739 -11.366426
-1.249368 -2.872682 -11.552539
-1.261023 -2.743828 -11.683467
-1.260795 -2.740139 -11.758167
-1.276783 -2.623441 -11.880640
-1.318642 -2.558924 -11.971446
-1.267574 -3.175702 -11.435583
-1.240200 -3.077951 -11.330723
-1.269336 -3.001205 -11.437070
-1.308149 -2.855103 -11.530059
-1.302188 -2.762096 -11.719237
-1.383276 -2.720058 -11.766345
-1.335385 -2.619729 -11.898738
-1.359294 -2.566037 -12.005078
-1.298401 -3.166475 -11.467955
-1.293109 -3.024210 -11.389091
-1.306935 -2.999188 -11.505232
-1.329616 -2.841716 -11.603865
-1.345150 -2.766132 -11.749693
-1.351916 -2.742940 -11.827456
-1.353264 -3.164201 -11.444864
-1.338395 -3.073279 -11.387231
-1.377895 -2.979401 -11.523797
-1.352044 -2.867420 -11.654003
-1.399994 -3.093892 -11.442348
-1.426872 -3.029559 -11.532143
1.374010 -3.370686 -11.360239
1.421505 -3.322465 -11.433290
1.468807 -3.209965 -11.554111
1.454222 -2.496079 -12.326409
1.482357 -2.373807 -12.455849
1.360306 -3.388378 -11.358384
1.377122 -3.308083 -11.407955
1.429022 -3.222229 -11.504960
1.358625 -3.124317 -11.640944
1.372312 -3.050810 -11.704541
1.416746 -2.906245 -11.818832
1.493728 -2.307317 -12.503358
1.484798 -2.167997 -12.649557
1.433398 -2.823015 -11.905428
1.409260 -2.766659 -12.008378
1.513836 -2.082236 -12.767795
1.535461 -2.015351 -12.827946
1.476983 -2.660041 -12.113398
1.449005 -2.619461 -12.187853
1.387506 -2.505203 -12.265644
1.457532 -2.360333 -12.363919
1.330555 -3.381105 -11.385807
1.335234 -3.273415 -11.386270
1.334760 -3.218549 -11.462826
1.369400 -3.115850 -11.562607
1.361560 -3.032168 -11.645820
1.349166 -2.926684 -11.761305
1.460069 -2.275299 -12.467025
1.452947 -2.186091 -12.602099
1.414257 -2.807181 -11.892868
1.393372 -2.768043 -11.973942
1.506781 -2.052908 -12.683024
1.472295 -1.989590 -12.779157
1.428772 -2.668991 -12.045947
1.381443 -2.580701 -12.141459
1.391197 -2.425876 -12.186436
1.448413 -2.345975 -12.298819
1.308752 -3.382360 -11.382936
1.289561 -3.259560 -11.332385
1.283020 -3.226189 -11.421841
1.314104 -3.099121 -11.530045
1.333667 -3.054791 -11.603716
1.331353 -2.919678 -11.734381
1.404291 -2.290010 -12.409397
1.399598 -2.197771 -12.496873
1.319277 -2.812331 -11.828466
1.352940 -2.745174 -11.902936
1.443291 -2.089115 -12.644467
1.436011 -2.026554 -12.713976
1.394097 -2.692196 -11.986897
1.378443 -2.567951 -12.086548
1.407912 -1.902237 -12.728331
1.340238 -2.452826 -12.165026
1.303524 -2.341227 -12.239780
1.275871 -3.350297 -11.368388
1.268648 -3.274330 -11.286341
1.255543 -3.180216 -11.347724
1.231054 -3.046780 -11.449665
1.308900 -2.985240 -11.566640
1.294102 -2.882172 -11.685236
1.346455 -2.298778 -12.357654
1.359912 -2.163661 -12.437863
1.280353 -2.771380 -11.761333
1.291577 -2.716904 -11.852382
1.384223 -2.090628 -12.533323
1.407648 -2.015493 -12.627480
1.334454 -2.668350 -11.946501
1.335144 -2.571043 -11.999349
1.354742 -1.960553 -12.669206
1.311083 -2.458901 -12.094902
1.324635 -2.326428 -12.227285
1.200893 -3.381336 -11.395027
1.201139 -3.248296 -11.245223
1.179209 -3.148851 -11.321535
1.235794 -3.083578 -11.392859
1.228261 -2.971552 -11.526799
1.260517 -2.879782 -11.637518
1.289652 -2.260693 -12.313819
1.337929 -2.149612 -12.439608
1.254304 -2.788328 -11.708609
1.298236 -2.696875 -11.789938
1.315293 -2.054571 -12.520808
1.401367 -2.002967 -12.605104
1.282920 -2.610371 -11.886677
1.318993 -2.584146 -11.992877
1.334695 -1.910040 -12.617912
1.242965 -2.399865 -12.031932
1.266920 -2.291882 -12.145845
1.173412 -3.405602 -11.347820
1.177485 -3.268453 -11.255283
1.164526 -3.167702 -11.299147
1.205826 -3.051775 -11.375257
1.185847 -2.961171 -11.442337
1.173229 -2.847014 -11.600271
1.285785 -2.227990 -12.214343
1.312519 -2.148783 -12.342177
1.244404 -2.788234 -11.713187
1.222713 -2.693078 -11.763572
1.302005 -2.073231 -12.423652
1.293587 -1.939885 -12.530607
1.236054 -2.639154 -11.845150
1.225509 -2.521101 -11.942631
1.313602 -1.896672 -12.552571
1.245726 -1.800081 -12.605964
1.235361 -2.431145 -12.016178
1.227737 -2.275361 -12.086113
1.168602 -3.338172 -11.370574
1.157251 -3.272637 -11.266051
1.122866 -3.133746 -11.224169
1.120700 -3.031244 -11.299952
1.157405 -2.953423 -11.420923
1.149610 -2.840350 -11.512846
1.236518 -2.266475 -12.200552
1.257201 -2.131024 -12.284549
1.166845 -2.756886 -11.626455
1.177631 -2.685373 -11.676198
1.230969 -2.044725 -12.363714
1.263705 -1.949757 -12.492378
1.206001 -2.592273 -11.784232
1.208593 -2.523896 -11.894011
1.217174 -1.912334 -12.500986
1.240790 -1.790042 -12.562686
1.164693 -2.421259 -11.919767
1.186355 -2.293654 -12.044761
1.099560 -3.384517 -11.405009
1.118457 -3.286007 -11.286234
1.081883 -3.197783 -11.185987
1.134479 -3.044798 -11.250170
1.120477 -2.901774 -11.398217
1.134203 -2.847852 -11.438717
1.162136 -3.560004 -11.586931
1.184402 -2.247120 -12.154488
1.198803 -2.111516 -12.211336
1.138648 -2.742428 -11.555462
1.179284 -2.699735 -11.658600
1.230960 -2.051758 -12.321222
1.197721 -1.974981 -12.436423
1.154551 -2.612556 -11.745791
1.140641 -2.524919 -11.839687
1.162311 -1.858725 -12.459039
1.178927 -1.800659 -12.496799
1.244744 -1.743679 -12.535275
1.115169 -2.399878 -11.865204
1.136568 -2.259132 -12.012227
1.098208 -3.385513 -11.417384
1.102531 -3.227787 -11.306062
1.045365 -3.155261 -11.131682
1.084993 -3.002711 -11.183711
1.062384 -2.933423 -11.354171
1.063902 -2.833114 -11.425682
1.103867 -3.551966 -11.553411
1.171785 -2.226189 -12.051192
1.155104 -2.138176 -12.151706
1.131731 -2.732929 -11.505190
1.109436 -2.666305 -11.606943
1.136640 -2.033679 -12.275420
1.180862 -1.924802 -12.313009
1.099395 -2.589077 -11.704785
1.141581 -2.511016 -11.742797
1.131223 -1.868722 -12.370347
1.167506 -1.790371 -12.459295
1.141927 -1.743231 -12.519505
1.081228 -2.381374 -11.839550
1.069197 -2.299026 -11.908317
1.063571 -3.349372 -11.386233
1.024298 -3.187654 -11.280746
1.020550 -3.077577 -11.165792
0.989940 -2.976975 -11.146053
1.042515 -2.922785 -11.264150
1.058093 -2.801101 -11.412543
1.094302 -3.514820 -11.589262
1.068876 -2.225879 -12.020561
1.072673 -2.122723 -12.144440
1.038204 -2.691444 -11.475310
1.055268 -2.652813 -11.556937
1.127657 -2.019600 -12.201994
1.156085 -1.937413 -12.324077
1.070916 -2.553787 -11.658463
1.098199 -2.497174 -11.718672
1.074782 -1.868839 -12.312913
1.112228 -1.759796 -12.403742
1.119827 -1.733449 -12.447939
1.137100 -1.656506 -12.509828
1.062601 -2.355402 -11.788964
1.027978 -2.291071 -11.937840
0.976765 -3.368192 -11.373623
0.991319 -3.254708 -11.285167
1.045147 -3.104998 -11.136363
0.955817 -2.980762 -11.110778
0.983218 -2.946248 -11.218319
0.986307 -2.808846 -11.317659
1.044819 -3.536605 -11.562695
1.055035 -2.213263 -11.953180
1.087484 -2.143211 -12.050851
1.014482 -2.683816 -11.456839
1.025709 -2.598065 -11.482174
1.090162 -2.017487 -12.187586
1.107012 -1.968494 -12.256566
1.020335 -2.512058 -11.570840
1.002497 -2.455439 -11.694794
1.042461 -1.858078 -12.253472
1.065445 -1.778693 -12.332037
1.035676 -1.731554 -12.411325
1.113922 -1.709750 -12.469542
1.035210 -2.342770 -11.740279
1.005586 -2.238866 -11.826407
0.971041 -3.384569 -11.401068
0.948375 -3.254183 -11.324777
0.950806 -3.082311 -11.138801
0.954305 -2.961188 -11.090464
0.906006 -2.925427 -11.165145
0.943068 -2.752774 -11.286547
0.985492 -3.524837 -11.593254
1.021528 -2.156174 -11.897923
1.063389 -2.128511 -12.010573
0.953295 -2.714299 -11.410025
0.998924 -2.638125 -11.444258
1.059307 -1.994359 -12.079049
1.042380 -1.933136 -12.197733
0.997056 -2.531779 -11.549475
1.020543 -2.468297 -11.591682
0.977566 -1.848988 -12.209591
1.000137 -1.761305 -12.302507
1.002208 -1.704297 -12.370628
0.994712 -1.641330 -12.428243
0.963756 -2.353036 -11.667328
0.987935 -2.258801 -11.805196
0.916956 -3.401158 -11.425372
0.957271 -3.256878 -11.298727
0.928000 -3.091301 -11.203724
0.927306 -2.999674 -11.048729
0.917575 -2.898739 -11.141178
0.904319 -2.774278 -11.258720
0.965592 -3.526589 -11.599135
0.978142 -2.173529 -11.883739
0.997278 -2.087014 -11.931600
0.961367 -2.651280 -11.353501
0.962915 -2.601283 -11.393567
0.992143 -1.962784 -12.072388
0.990736 -1.890599 -12.106358
0.918543 -2.540813 -11.498877
0.979830 -2.430577 -11.564481
0.978954 -1.538519 -12.454152
0.951376 -1.836311 -12.180540
0.995359 -1.755564 -12.244765
1.004568 -1.717596 -12.286819
0.989094 -1.621838 -12.348339
0.913693 -2.329967 -11.632086
0.938525 -2.277623 -11.710476
0.911887 -3.375546 -11.393911
0.890173 -3.270116 -11.287269
0.884531 -3.080964 -11.147531
0.912177 -2.959824 -11.055270
0.893838 -2.851150 -11.116393
0.885207 -2.760624 -11.185724
0.931477 -3.552509 -11.576323
0.951182 -2.164165 -11.812361
0.927100 -2.057283 -11.923542
0.919385 -2.680943 -11.297899
0.859282 -2.652156 -11.377037
0.972665 -1.966291 -11.979847
0.962482 -1.893212 -12.127437
0.890655 -2.497837 -11.431146
0.922033 -2.450016 -11.517851
0.938118 -1.497800 -12.393298
0.922474 -1.823696 -12.094807
0.925986 -1.739068 -12.166781
0.931795 -1.684713 -12.257653
0.939416 -1.623219 -12.279631
0.849711 -2.325341 -11.549374
0.928206 -2.201562 -11.661190
0.836842 -3.354285 -11.398606
0.888240 -3.259639 -11.308449
0.857504 -3.108326 -11.133270
0.866656 -2.981908 -11.008334
0.819529 -2.842342 -11.044056
0.868243 -2.756497 -11.138599
0.885859 -3.522015 -11.586138
0.939502 -2.140217 -11.809959
0.918866 -2.047645 -11.847525
0.867551 -2.639091 -11.241888
0.873036 -2.624937 -11.324044
0.907460 -1.978104 -11.923470
0.914743 -1.886612 -12.068338
0.878701 -2.513546 -11.404670
0.884040 -2.439907 -11.452978
0.924178 -1.568113 -12.317144
0.872115 -1.501923 -12.369287
0.884289 -1.814894 -12.049827
0.869547 -1.730272 -12.112153
0.899548 -1.686487 -12.194029
0.888732 -1.636146 -12.252415
0.849209 -2.319065 -11.546934
0.854570 -2.255834 -11.597467
0.846974 -3.357080 -11.442938
0.858835 -3.234264 -11.322214
0.852337 -3.101101 -11.161386
0.835597 -2.953409 -11.052773
0.822276 -2.835592 -10.994965
0.828871 -2.722466 -11.099728
0.850500 -3.555530 -11.592053
0.875672 -2.110412 -11.728344
0.865509 -2.058829 -11.807360
0.812091 -2.682221 -11.213078
0.828278 -2.568173 -11.240804
0.851375 -1.919095 -11.896493
0.886268 -1.831420 -11.940809
0.853938 -2.487836 -11.333476
0.844696 -2.445143 -11.446511
0.854568 -1.541743 -12.248687
0.879710 -1.463798 -12.319603
0.873360 -1.843687 -12.016141
0.851309 -1.744008 -12.054272
0.834381 -1.678797 -12.125025
0.865034 -1.639790 -12.193047
0.825619 -2.305576 -11.478635
0.810347 -2.186454 -11.582795
0.789715 -3.333166 -11.397484
0.801520 -3.271379 -11.330051
0.854022 -3.072477 -11.182887
0.758318 -2.970047 -11.045467
0.764021 -2.798924 -10.950645
0.760773 -2.716126 -11.073567
0.820797 -3.546692 -11.596601
0.795045 -2.103832 -11.697335
0.796153 -2.049113 -11.733460
0.810561 -2.626427 -11.130942
0.820339 -2.616796 -11.194363
0.814053 -1.945338 -11.855332
0.832742 -1.869264 -11.909265
0.774340 -2.494398 -11.296912
0.806404 -2.421248 -11.371647
0.823044 -1.525937 -12.234302
0.813555 -1.500112 -12.285250
0.770784 -1.799027 -11.916628
0.803620 -1.728929 -11.995561
0.839861 -1.682727 -12.050830
0.819274 -1.636116 -12.130450
0.783419 -2.280659 -11.437042
0.761511 -2.210572 -11.519636
0.757280 -3.389386 -11.420140
0.737309 -3.279220 -11.341529
0.787052 -3.093766 -11.128951
0.732295 -2.974147 -11.090841
0.717607 -2.823893 -10.897073
0.709238 -2.761824 -11.002978
0.833504 -3.713607 -11.786118
0.764183 -3.560611 -11.608280
0.781569 -2.122523 -11.595557
0.773681 -2.040165 -11.728419
0.743988 -2.603453 -11.109373
0.749023 -2.552443 -11.161885
0.780909 -1.942831 -11.797589
0.820117 -1.872463 -11.868827
0.760351 -2.456183 -11.265923
0.770201 -2.427217 -11.306379
0.828942 -1.521655 -12.146643
0.824624 -1.484410 -12.213107
0.826970 -1.398735 -12.302527
0.781306 -1.748137 -11.875613
0.774811 -1.664486 -11.974716
0.768559 -1.638382 -12.034795
0.804598 -1.619121 -12.096149
0.744927 -2.306634 -11.376084
0.730727 -2.185231 -11.484570
0.733004 -3.397575 -11.437506
0.721377 -3.284501 -11.315633
0.742422 -3.106787 -11.198537
0.694777 -3.004911 -11.069781
0.670772 -2.851766 -10.913091
0.719218 -2.687327 -10.935561
0.759580 -3.778580 -11.803152
0.745697 -3.554683 -11.622778
0.728191 -2.122214 -11.549186
0.770254 -2.028918 -11.644023
0.663924 -2.640721 -11.061898
0.717434 -2.565583 -11.091382
0.773156 -1.914048 -11.737850
0.741506 -1.837043 -11.826307
0.715890 -2.454336 -11.215981
0.730108 -2.405960 -11.307466
0.737804 -1.516777 -12.104399
0.763392 -1.460877 -12.160945
0.760508 -1.411803 -12.208031
0.722643 -1.762235 -11.808840
0.736961 -1.723037 -11.891984
0.717800 -1.674297 -12.004273
0.760097 -1.604607 -12.028694
0.712552 -2.262313 -11.332467
0.680824 -2.183047 -11.438301
0.695380 -3.390197 -11.442181
0.653860 -3.287588 -11.309953
0.691425 -3.105947 -11.196995
0.690164 -2.946564 -11.081009
0.641630 -2.805674 -10.864951
0.666039 -2.627552 -10.967404
0.730737 -3.738881 -11.779087
0.726820 -3.556579 -11.597452
0.702204 -2.087579 -11.526913
0.715653 -1.993767 -11.590448
0.670162 -2.582936 -11.019158
0.683877 -2.589613 -11.084295
0.730272 -1.936691 -11.661572
0.690190 -1.829427 -11.758545
0.715599 -2.411881 -11.178791
0.698500 -2.384561 -11.242149
0.701446 -1.547421 -12.081418
0.718949 -1.490641 -12.094830
0.708127 -1.383260 -12.140007
0.705507 -1.755006 -11.777785
0.668794 -1.713394 -11.834321
0.714477 -1.632145 -11.903778
0.722976 -1.565144 -11.965615
0.681003 -2.281196 -11.289957
0.661389 -2.145855 -11.410996
0.674072 -3.396590 -11.460324
0.655751 -3.237237 -11.332883
0.653802 -3.096144 -11.197841
0.634682 -2.928619 -11.027995
0.608394 -2.839943 -10.903470
0.657262 -2.651193 -10.886903
0.694022 -3.756794 -11.817925
0.682229 -3.539150 -11.641271
0.643873 -2.100044 -11.504444
0.687852 -1.975821 -11.541602
0.628336 -2.586681 -11.016612
0.664604 -2.528599 -11.049794
0.669179 -1.936171 -11.615168
0.693566 -1.839018 -11.726398
0.689632 -2.442716 -11.145051
0.631127 -2.388100 -11.190417
0.677778 -1.523503 -12.017090
0.707858 -1.447614 -12.044305
0.645130 -1.397304 -12.140962
0.646217 -1.266460 -12.164732
0.655549 -1.758546 -11.703845
0.630370 -1.701431 -11.794544
0.677012 -1.585673 -11.883656
0.649129 -1.557350 -11.933951
0.576794 -2.229569 -11.238083
0.611390 -2.151212 -11.323586
0.631275 -3.383599 -11.455689
0.596420 -3.265440 -11.338076
0.622467 -3.095750 -11.208332
0.646608 -2.974029 -11.058494
0.590961 -2.836404 -10.872612
0.573386 -2.690242 -10.855019
0.669575 -3.710933 -11.742662
0.645812 -3.571418 -11.597002
0.656209 -2.121197 -11.412507
0.663373 -2.005139 -11.517956
0.629163 -2.554399 -10.943481
0.589391 -2.505536 -10.978486
0.632107 -1.915388 -11.580290
0.684873 -1.836715 -11.677853
0.648905 -2.433881 -11.083163
0.604202 -2.389433 -11.140752
0.619431 -1.486466 -11.948511
0.622260 -1.405731 -12.050103
0.629367 -1.380593 -12.086364
0.650170 -1.280715 -12.129152
0.632876 -1.787459 -11.677962
0.623955 -1.666993 -11.742522
0.648883 -1.283764 -12.171245
0.658517 -1.622927 -11.811802
0.651372 -1.566858 -11.864222
0.608739 -2.252805 -11.222346
0.608893 -2.115653 -11.266958
0.604047 -3.365285 -11.468220
0.624258 -3.262823 -11.342897
0.543380 -3.115516 -11.156253
0.540355 -2.978834 -11.046889
0.573408 -2.800535 -10.930480
0.542351 -2.670046 -10.773225
0.601478 -3.736218 -11.760740
0.595910 -3.540806 -11.608698
0.595675 -2.079150 -11.373009
0.595015 -1.989729 -11.453428
0.578893 -2.571187 -10.893305
0.565963 -2.514786 -10.949254
0.570545 -1.913842 -11.541538
0.604923 -1.799438 -11.600952
0.562082 -2.409394 -11.021014
0.565510 -2.349509 -11.099607
0.585196 -1.468637 -11.873758
0.582717 -1.446929 -11.955272
0.596850 -1.374871 -12.010675
0.581648 -1.313456 -12.062961
0.567838 -1.757316 -11.633968
0.596291 -1.710530 -11.713809
0.617395 -1.244543 -12.146784
0.580574 -1.624856 -11.784741
0.595146 -1.577818 -11.816014
0.513662 -2.262163 -11.144001
0.577943 -2.108120 -11.232997
0.578051 -3.367024 -11.470943
0.563468 -3.290181 -11.369690
0.524514 -3.101416 -11.208417
0.590346 -2.954845 -11.066429
0.570141 -2.822069 -10.920074
0.527533 -2.642920 -10.753300
0.573186 -3.772104 -11.791769
0.569443 -3.578887 -11.625448
0.562272 -2.065009 -11.312655
0.579862 -1.979615 -11.371347
0.529980 -2.519424 -10.847094
0.565543 -2.489545 -10.931787
0.571381 -1.897780 -11.452759
0.537127 -1.822542 -11.574553
0.544390 -2.422106 -10.967245
0.532758 -2.351474 -11.023512
0.548013 -1.466950 -11.803335
0.558319 -1.403788 -11.873548
0.550699 -1.359698 -11.964700
0.565193 -1.270215 -12.039271
0.538500 -1.746291 -11.622973
0.537983 -1.697168 -11.663277
0.566612 -1.216057 -12.061875
0.514883 -1.627313 -11.721379
0.509703 -1.510449 -11.805716
0.486729 -2.225666 -11.078926
0.491490 -2.137456 -11.135798
0.522268 -3.407206 -11.454538
0.540456 -3.226584 -11.352638
0.494254 -3.093382 -11.205432
0.541463 -2.946083 -11.078788
0.501016 -2.803883 -10.943598
0.475819 -2.659335 -10.772242
0.561379 -3.770945 -11.796930
0.553519 -3.544873 -11.607883
0.491946 -2.044947 -11.267979
0.510130 -1.972055 -11.371609
0.482321 -2.534298 -10.828555
0.518751 -2.486904 -10.880524
0.542391 -1.892976 -11.407110
0.512356 -1.763849 -11.511848
0.453319 -2.399778 -10.941424
0.513610 -2.340864 -11.014389
0.524490 -1.499104 -11.785156
0.514052 -1.397025 -11.841116
0.490504 -1.354954 -11.860957
0.525402 -1.262755 -11.991415
0.511671 -1.747889 -11.524023
0.479649 -1.660347 -11.606938
0.459698 -1.233273 -12.057508
0.550858 -1.143323 -12.082505
0.533659 -1.603022 -11.634193
0.490449 -1.560063 -11.689489
0.489484 -2.196781 -11.074271
0.463516 -2.134707 -11.121683
0.481087 -3.386643 -11.456233
0.434941 -3.235030 -11.317142
0.503163 -3.142165 -11.201743
0.443292 -2.958924 -11.105520
0.491584 -2.868717 -10.932089
0.438304 -2.649057 -10.769091
0.504384 -3.742280 -11.752558
0.516294 -3.550010 -11.624768
0.501014 -2.057288 -11.233752
0.469577 -1.964481 -11.326765
0.446026 -2.550878 -10.789400
0.522502 -2.526053 -10.808940
0.511009 -1.891707 -11.329428
0.470412 -1.804640 -11.485961
0.518157 -2.401867 -10.910232
0.479042 -2.334536 -10.981857
0.469188 -1.452343 -11.749194
0.422983 -1.398935 -11.760720
0.485915 -1.360880 -11.836254
0.491829 -1.282521 -11.951693
0.457751 -1.747645 -11.499145
0.465127 -1.646219 -11.542590
0.439581 -1.197911 -11.988973
0.512641 -1.113680 -12.073972
0.463154 -1.592429 -11.630107
0.459902 -1.531568 -11.633694
0.451630 -2.183225 -11.008377
0.410618 -2.118188 -11.107162
0.488216 -3.390169 -11.448793
0.470174 -3.292493 -11.355145
0.433423 -3.093759 -11.213829
0.438566 -2.980001 -11.088571
0.495451 -3.946437 -11.958112
0.457584 -2.802984 -10.945988
0.424669 -2.622505 -10.810849
0.515407 -3.717631 -11.780372
0.488180 -3.562445 -11.641276
0.439629 -2.060869 -11.199217
0.408801 -1.959409 -11.292819
0.410820 -2.496467 -10.753018
0.432559 -2.485100 -10.744058
0.430850 -1.868773 -11.341996
0.456489 -1.777754 -11.416840
0.439184 -2.378483 -10.833414
0.440765 -2.308388 -10.900488
0.426070 -1.472098 -11.703152
0.422037 -1.391676 -11.771930
0.438632 -1.376641 -11.821725
0.419576 -1.294187 -11.864099
0.429440 -1.740392 -11.443606
0.433606 -1.681052 -11.516122
0.455054 -1.227790 -11.899340
0.432797 -1.145166 -11.926908
0.447588 -1.594423 -11.596311
0.451065 -1.539244 -11.589239
0.404869 -2.166003 -10.958674
0.387792 -2.112613 -11.059519
0.409184 -3.365476 -11.489241
0.417560 -3.280323 -11.316451
0.375313 -3.063886 -11.207242
0.445044 -2.968324 -11.112335
0.452185 -3.968157 -11.985926
0.414081 -2.820389 -10.957074
0.435530 -2.615697 -10.788743
0.403975 -3.766684 -11.786569
0.419769 -3.572678 -11.672133
0.386832 -1.993122 -11.147270
0.407191 -1.926787 -11.214119
0.423220 -2.523353 -10.683306
0.418124 -2.446231 -10.755574
0.396475 -1.857805 -11.263496
0.372687 -1.812277 -11.372493
0.427556 -2.366503 -10.820987
0.388069 -2.289452 -10.888261
0.400210 -1.442033 -11.651182
0.378427 -1.404931 -11.690919
0.401193 -1.340511 -11.727389
0.386971 -1.270324 -11.830303
0.381048 -1.733184 -11.393855
0.408827 -1.676956 -11.456121
0.393904 -1.195445 -11.867525
0.387038 -1.131609 -11.916440
0.390409 -1.615546 -11.519580
0.401196 -1.541697 -11.531117
0.395513 -1.092218 -11.999639
0.349093 -2.177411 -10.884059
0.411245 -2.095438 -11.016879
0.373241 -3.417813 -11.457598
0.404690 -3.272007 -11.379149
0.411708 -3.075907 -11.227005
0.393109 -2.957441 -11.083731
0.358030 -3.925435 -11.995946
0.341217 -2.796204 -10.936138
0.359433 -2.669327 -10.763125
0.399873 -3.748584 -11.778520
0.393716 -3.574545 -11.639446
0.385097 -2.023779 -11.065171
0.384166 -1.948598 -11.189216
0.365120 -2.496475 -10.633212
0.356111 -2.460501 -10.674482
0.378934 -1.856147 -11.279691
0.385650 -1.773054 -11.318725
0.341776 -2.378012 -10.765794
0.358769 -2.265556 -10.838227
0.342405 -1.441164 -11.608787
0.347525 -1.454140 -11.614398
0.354608 -1.320491 -11.687710
0.354682 -1.273266 -11.777750
0.356964 -1.670014 -11.355388
0.364927 -1.674071 -11.406812
0.366043 -1.211828 -11.833306
0.354018 -1.145524 -11.937778
0.338922 -1.611007 -11.448019
0.356412 -1.503771 -11.506078
0.366862 -1.043960 -11.936589
0.355356 -2.182829 -10.909150
0.314609 -2.085617 -10.970972
0.343109 -3.363017 -11.512164
0.370774 -3.256401 -11.381175
0.343449 -3.113207 -11.227804
0.377111 -2.992504 -11.081528
0.417415 -3.934688 -12.020279
0.317954 -2.850388 -10.959477
0.303012 -2.632832 -10.805036
0.402786 -3.751208 -11.835347
0.388517 -3.547669 -11.663348
0.335414 -2.009335 -11.042573
0.355659 -1.928149 -11.122794
0.329503 -2.507391 -10.639949
0.342416 -2.425567 -10.611533
0.317620 -1.852571 -11.227777
0.336343 -1.758128 -11.297111
0.323120 -2.332348 -10.707792
0.321852 -2.282285 -10.767389
0.360749 -1.443242 -11.487555
0.303958 -1.418175 -11.601847
0.360826 -1.319702 -11.639258
0.333660 -1.251007 -11.723802
0.303513 -1.685634 -11.295069
0.330330 -1.630005 -11.348065
0.325397 -1.153392 -11.762244
0.357366 -1.115070 -11.847262
0.315726 -1.573823 -11.374321
0.278985 -1.537269 -11.438936
0.343229 -1.056104 -11.900364
0.327141 -0.992052 -11.980641
0.312047 -2.121792 -10.797524
0.283705 -2.079932 -10.911560
0.310345 -3.359664 -11.508613
0.322860 -3.246598 -11.312945
0.327645 -3.105935 -11.219397
0.318599 -2.974701 -11.095954
0.352338 -3.937325 -11.962844
0.304379 -2.843032 -10.943170
0.292659 -2.630467 -10.770524
0.312552 -3.743320 -11.833012
0.334525 -3.561968 -11.633674
0.307188 -2.023973 -11.009656
0.293371 -1.927810 -11.081904
0.327797 -2.494388 -10.648179
0.277430 -2.416572 -10.604272
0.307043 -1.838375 -11.196685
0.345340 -1.752484 -11.226392
0.316612 -2.335233 -10.683544
0.266599 -2.267897 -10.742885
0.264674 -1.468173 -11.478940
0.295335 -1.354214 -11.567320
0.285566 -1.342517 -11.596214
0.263102 -1.308798 -11.650164
0.273724 -1.645814 -11.231982
0.263467 -1.608625 -11.307638
0.309754 -1.182661 -11.678056
0.299285 -1.129988 -11.779431
0.294058 -1.539028 -11.346873
