# .PCD v0.7 - Point Cloud Data file format
VERSION 0.7
FIELDS x y z rgb label
SIZE 4 4 4 4 4
TYPE F F F F U
COUNT 1 1 1 1 1
WIDTH 746
HEIGHT 1
VIEWPOINT 0 0 0 1 0 0 0
POINTS 746
DATA ascii
1.191875 -2.605042 -11.815853 1.880790849211783e-38 1700951363
1.206011 -2.547510 -11.955999 1.880790849211783e-38 1700951363
1.229134 -1.893117 -12.564612 1.880790849211783e-38 1700951363
1.223902 -1.802830 -12.511136 1.880790849211783e-38 1700951363
1.153170 -2.377814 -11.788080 1.880790849211783e-38 1700951363
1.187163 -2.320788 -12.135572 1.880790849211783e-38 1700951363
1.108745 -3.354714 -11.333954 1.880790849211783e-38 1700951363
1.086654 -3.203460 -11.108139 1.880790849211783e-38 1700951363
1.082147 -3.081113 -11.062061 1.880790849211783e-38 1700951363
1.104226 -3.041966 -11.287759 1.880790849211783e-38 1700951363
1.098801 -2.911671 -11.232305 1.880790849211783e-38 1700951363
1.124199 -2.842072 -11.491930 1.880790849211783e-38 1700951363
1.147524 -3.602149 -11.730365 1.880790849211783e-38 1700951363
1.183472 -2.216665 -12.097836 1.880790849211783e-38 1700951363
1.196406 -2.130365 -12.230054 1.880790849211783e-38 1700951363
1.133367 -2.736752 -11.585650 1.880790849211783e-38 1700951363
1.146444 -2.696118 -11.719330 1.880790849211783e-38 1700951363
1.192224 -2.022792 -12.187306 1.880790849211783e-38 1700951363
1.199541 -1.926911 -12.262107 1.880790849211783e-38 1700951363
1.151733 -2.594903 -11.773393 1.880790849211783e-38 1700951363
1.163964 -2.534482 -11.898420 1.880790849211783e-38 1700951363
1.185676 -1.884280 -12.509591 1.880790849211783e-38 1700951363
1.194412 -1.815362 -12.601765 1.880790849211783e-38 1700951363
1.197719 -1.750332 -12.636658 1.880790849211783e-38 1700951363
1.107051 -2.355339 -11.680054 1.880790849211783e-38 1700951363
1.142594 -2.304721 -12.055055 1.880790849211783e-38 1700951363
1.076859 -3.361893 -11.361506 1.880790849211783e-38 1700951363
1.072620 -3.262684 -11.316788 1.880790849211783e-38 1700951363
1.053704 -3.095574 -11.117212 1.880790849211783e-38 1700951363
1.067278 -3.033718 -11.260423 1.880790849211783e-38 1700951363
1.070867 -2.927924 -11.298287 1.880790849211783e-38 1700951363
1.081763 -2.821793 -11.413247 1.880790849211783e-38 1700951363
1.103850 -3.575290 -11.646279 1.880790849211783e-38 1700951363
1.149009 -2.220582 -12.122736 1.880790849211783e-38 1700951363
1.147235 -2.107798 -12.104016 1.880790849211783e-38 1700951363
1.093433 -2.724322 -11.536379 1.880790849211783e-38 1700951363
1.097308 -2.662661 -11.577261 1.880790849211783e-38 1700951363
1.152567 -2.017720 -12.160276 1.880790849211783e-38 1700951363
1.156785 -1.917344 -12.204774 1.880790849211783e-38 1700951363
1.114064 -2.589887 -11.754050 1.880790849211783e-38 1700951363
1.124843 -2.527218 -11.867766 1.880790849211783e-38 1700951363
1.144830 -1.879173 -12.479194 1.880790849211783e-38 1700951363
1.149668 -1.804793 -12.531925 1.880790849211783e-38 1700951363
1.151473 -1.738063 -12.551611 1.880790849211783e-38 1700951363
1.069123 -2.349415 -11.653952 1.880790849211783e-38 1700951363
1.096749 -2.284967 -11.955093 1.880790849211783e-38 1700951363
1.053003 -3.395479 -11.478239 1.880790849211783e-38 1700951363
1.028877 -3.232501 -11.215252 1.880790849211783e-38 1700951363
1.022426 -3.102420 -11.144932 1.880790849211783e-38 1700951363
1.020155 -2.995090 -11.120173 1.880790849211783e-38 1700951363
1.035678 -2.924796 -11.289390 1.880790849211783e-38 1700951363
1.047429 -2.822046 -11.417480 1.880790849211783e-38 1700951363
1.073691 -3.591922 -11.703749 1.880790849211783e-38 1700951363
1.108723 -2.213158 -12.085607 1.880790849211783e-38 1700951363
1.110445 -2.107269 -12.104377 1.880790849211783e-38 1700951363
1.043635 -2.685721 -11.376122 1.880790849211783e-38 1700951363
1.056188 -2.647126 -11.512955 1.880790849211783e-38 1700951363
1.111615 -2.009996 -12.117135 1.880790849211783e-38 1700951363
1.127807 -1.930761 -12.293634 1.880790849211783e-38 1700951363
1.082830 -2.600023 -11.803367 1.880790849211783e-38 1700951363
1.081890 -2.510615 -11.793116 1.880790849211783e-38 1700951363
1.094690 -1.857961 -12.341690 1.880790849211783e-38 1700951363
1.093596 -1.775138 -12.329359 1.880790849211783e-38 1700951363
1.109319 -1.731362 -12.506618 1.880790849211783e-38 1700951363
1.097394 -1.641658 -12.372175 1.880790849211783e-38 1700951363
1.046468 -2.377813 -11.798025 1.880790849211783e-38 1700951363
1.068102 -2.300937 -12.041928 1.880790849211783e-38 1700951363
1.013652 -3.379714 -11.428055 1.880790849211783e-38 1700951363
0.985104 -3.200201 -11.106206 1.880790849211783e-38 1700951363
0.980746 -3.077125 -11.057070 1.880790849211783e-38 1700951363
0.978683 -2.971022 -11.033813 1.880790849211783e-38 1700951363
0.994517 -2.904041 -11.212327 1.880790849211783e-38 1700951363
1.015640 -2.829429 -11.450464 1.880790849211783e-38 1700951363
1.041650 -3.603206 -11.743711 1.880790849211783e-38 1700951363
1.068822 -2.206046 -12.050047 1.880790849211783e-38 1700951363
1.064967 -2.089675 -12.006588 1.880790849211783e-38 1700951363
1.011386 -2.691218 -11.402508 1.880790849211783e-38 1700951363
1.016548 -2.634395 -11.460699 1.880790849211783e-38 1700951363
1.062560 -1.986617 -11.979456 1.880790849211783e-38 1700951363
1.077549 -1.907439 -12.148444 1.880790849211783e-38 1700951363
1.030494 -2.558479 -11.617930 1.880790849211783e-38 1700951363
1.041503 -2.499063 -11.742047 1.880790849211783e-38 1700951363
1.047473 -1.840408 -12.228311 1.880790849211783e-38 1700951363
1.069354 -1.796895 -12.483757 1.880790849211783e-38 1700951363
1.055671 -1.705635 -12.324021 1.880790849211783e-38 1700951363
1.064006 -1.647746 -12.421321 1.880790849211783e-38 1700951363
1.000891 -2.354316 -11.684510 1.880790849211783e-38 1700951363
1.020606 -2.276022 -11.914667 1.880790849211783e-38 1700951363
0.977715 -3.374657 -11.413957 1.880790849211783e-38 1700951363
0.966513 -3.250339 -11.283174 1.880790849211783e-38 1700951363
0.948605 -3.081058 -11.074114 1.880790849211783e-38 1700951363
0.954538 -2.999736 -11.143381 1.880790849211783e-38 1700951363
0.954305 -2.884720 -11.140658 1.880790849211783e-38 1700951363
0.967947 -2.791495 -11.299920 1.880790849211783e-38 1700951363
1.005583 -3.600901 -11.739285 1.880790849211783e-38 1700951363
1.016799 -2.172553 -11.870219 1.880790849211783e-38 1700951363
1.026269 -2.084636 -11.980783 1.880790849211783e-38 1700951363
0.978490 -2.695347 -11.423005 1.880790849211783e-38 1700951363
0.980915 -2.631545 -11.451313 1.880790849211783e-38 1700951363
1.023324 -1.980615 -11.946401 1.880790849211783e-38 1700951363
1.034990 -1.896600 -12.082585 1.880790849211783e-38 1700951363
0.993776 -2.554177 -11.601445 1.880790849211783e-38 1700951363
0.999562 -2.482862 -11.668995 1.880790849211783e-38 1700951363
1.012655 -1.844168 -12.256402 1.880790849211783e-38 1700951363
1.008283 -1.756109 -12.203492 1.880790849211783e-38 1700951363
1.020699 -1.709317 -12.353757 1.880790849211783e-38 1700951363
1.021477 -1.639617 -12.363184 1.880790849211783e-38 1700951363
0.945971 -2.306340 -11.449314 1.880790849211783e-38 1700951363
0.976882 -2.258020 -11.823430 1.880790849211783e-38 1700951363
0.943307 -3.374720 -11.417067 1.880790849211783e-38 1700951363
0.922714 -3.216293 -11.167822 1.880790849211783e-38 1700951363
0.916673 -3.086007 -11.094717 1.880790849211783e-38 1700951363
0.918847 -2.992956 -11.121019 1.880790849211783e-38 1700951363
0.915184 -2.867428 -11.076690 1.880790849211783e-38 1700951363
0.934452 -2.793249 -11.309888 1.880790849211783e-38 1700951363
0.962065 -3.570798 -11.644099 1.880790849211783e-38 1700951363
0.983876 -2.178930 -11.908082 1.880790849211783e-38 1700951363
0.987892 -2.079916 -11.956687 1.880790849211783e-38 1700951363
0.936409 -2.673568 -11.333578 1.880790849211783e-38 1700951363
0.951650 -2.646209 -11.518048 1.880790849211783e-38 1700951363
0.992256 -1.990573 -12.009512 1.880790849211783e-38 1700951363
0.990347 -1.881025 -11.986403 1.880790849211783e-38 1700951363
0.949908 -2.530532 -11.496963 1.880790849211783e-38 1700951363
0.958115 -2.466766 -11.596288 1.880790849211783e-38 1700951363
0.991697 -1.560145 -12.460593 1.880790849211783e-38 1700951363
0.963963 -1.822012 -12.112112 1.880790849211783e-38 1700951363
0.975414 -1.763232 -12.255992 1.880790849211783e-38 1700951363
0.976100 -1.696568 -12.264616 1.880790849211783e-38 1700951363
0.981473 -1.635098 -12.332118 1.880790849211783e-38 1700951363
0.917581 -2.321890 -11.529328 1.880790849211783e-38 1700951363
0.945149 -2.267451 -11.875717 1.880790849211783e-38 1700951363
0.914540 -3.395780 -11.491123 1.880790849211783e-38 1700951363
0.896015 -3.241572 -11.258352 1.880790849211783e-38 1700951363
0.886277 -3.096730 -11.135994 1.880790849211783e-38 1700951363
0.882367 -2.983034 -11.086862 1.880790849211783e-38 1700951363
0.878504 -2.856797 -11.038322 1.880790849211783e-38 1700951363
0.908042 -2.817154 -11.409471 1.880790849211783e-38 1700951363
0.926361 -3.568561 -11.639652 1.880790849211783e-38 1700951363
0.935305 -2.149850 -11.752029 1.880790849211783e-38 1700951363
0.941828 -2.058068 -11.833986 1.880790849211783e-38 1700951363
0.899924 -2.666755 -11.307465 1.880790849211783e-38 1700951363
0.914387 -2.638934 -11.489191 1.880790849211783e-38 1700951363
0.943733 -1.964967 -11.857928 1.880790849211783e-38 1700951363
0.958900 -1.890306 -12.048492 1.880790849211783e-38 1700951363
0.918441 -2.539414 -11.540138 1.880790849211783e-38 1700951363
0.918385 -2.454071 -11.539429 1.880790849211783e-38 1700951363
0.952600 -1.557673 -12.443781 1.880790849211783e-38 1700951363
0.932595 -1.832162 -12.182451 1.880790849211783e-38 1700951363
0.933250 -1.753470 -12.191010 1.880790849211783e-38 1700951363
0.936968 -1.692706 -12.239582 1.880790849211783e-38 1700951363
0.941575 -1.630423 -12.299757 1.880790849211783e-38 1700951363
0.881543 -2.318573 -11.515567 1.880790849211783e-38 1700951363
0.893984 -2.229190 -11.678074 1.880790849211783e-38 1700951363
0.875911 -3.380467 -11.441999 1.880790849211783e-38 1700951363
0.854587 -3.213487 -11.163437 1.880790849211783e-38 1700951363
0.855307 -3.106245 -11.172840 1.880790849211783e-38 1700951363
0.843043 -2.962368 -11.012645 1.880790849211783e-38 1700951363
0.840615 -2.841273 -10.980926 1.880790849211783e-38 1700951363
0.864330 -2.787175 -11.290715 1.880790849211783e-38 1700951363
0.904373 -3.621098 -11.813794 1.880790849211783e-38 1700951363
0.902640 -2.156500 -11.791159 1.880790849211783e-38 1700951363
0.905529 -2.056698 -11.828897 1.880790849211783e-38 1700951363
0.859255 -2.646546 -11.224417 1.880790849211783e-38 1700951363
0.860637 -2.581656 -11.242468 1.880790849211783e-38 1700951363
0.905076 -1.958715 -11.822981 1.880790849211783e-38 1700951363
0.916149 -1.877177 -11.967624 1.880790849211783e-38 1700951363
0.876704 -2.519502 -11.452350 1.880790849211783e-38 1700951363
0.885889 -2.460490 -11.572340 1.880790849211783e-38 1700951363
0.910410 -1.549743 -12.383232 1.880790849211783e-38 1700951363
0.912386 -1.489516 -12.410115 1.880790849211783e-38 1700951363
0.893428 -1.827205 -12.152246 1.880790849211783e-38 1700951363
0.896309 -1.753136 -12.191442 1.880790849211783e-38 1700951363
0.897526 -1.687954 -12.207984 1.880790849211783e-38 1700951363
0.895427 -1.614109 -12.179442 1.880790849211783e-38 1700951363
0.838353 -2.295415 -11.403129 1.880790849211783e-38 1700951363
0.856303 -2.222809 -11.647279 1.880790849211783e-38 1700951363
0.838174 -3.367500 -11.400692 1.880790849211783e-38 1700951363
0.829182 -3.245840 -11.278380 1.880790849211783e-38 1700951363
0.824759 -3.118156 -11.218222 1.880790849211783e-38 1700951363
0.819484 -2.997689 -11.146473 1.880790849211783e-38 1700951363
0.813213 -2.861390 -11.061176 1.880790849211783e-38 1700951363
0.822439 -2.760867 -11.186673 1.880790849211783e-38 1700951363
0.867383 -3.615437 -11.797993 1.880790849211783e-38 1700951363
0.867172 -2.156735 -11.795114 1.880790849211783e-38 1700951363
0.870231 -2.057595 -11.836730 1.880790849211783e-38 1700951363
0.830862 -2.664054 -11.301229 1.880790849211783e-38 1700951363
0.836669 -2.612700 -11.380226 1.880790849211783e-38 1700951363
0.859151 -1.935586 -11.686015 1.880790849211783e-38 1700951363
0.874217 -1.864726 -11.890939 1.880790849211783e-38 1700951363
0.841766 -2.518317 -11.449551 1.880790849211783e-38 1700951363
0.839976 -2.428657 -11.425203 1.880790849211783e-38 1700951363
0.862154 -1.530387 -12.231225 1.880790849211783e-38 1700951363
0.864962 -1.472507 -12.271063 1.880790849211783e-38 1700951363
0.843062 -1.797964 -11.960369 1.880790849211783e-38 1700951363
0.855132 -1.744153 -12.131613 1.880790849211783e-38 1700951363
0.851671 -1.670241 -12.082501 1.880790849211783e-38 1700951363
0.862749 -1.621737 -12.239662 1.880790849211783e-38 1700951363
0.794618 -2.268748 -11.273104 1.880790849211783e-38 1700951363
0.822044 -2.225173 -11.662199 1.880790849211783e-38 1700951363
0.801696 -3.358745 -11.373520 1.880790849211783e-38 1700951363
0.791934 -3.232662 -11.235033 1.880790849211783e-38 1700951363
0.789448 -3.112350 -11.199765 1.880790849211783e-38 1700951363
0.777447 -2.965588 -11.029507 1.880790849211783e-38 1700951363
0.769564 -2.823653 -10.917668 1.880790849211783e-38 1700951363
0.779584 -2.728968 -11.059824 1.880790849211783e-38 1700951363
0.822730 -3.576027 -11.671926 1.880790849211783e-38 1700951363
0.818206 -2.122015 -11.607751 1.880790849211783e-38 1700951363
0.830949 -2.048770 -11.788522 1.880790849211783e-38 1700951363
0.781415 -2.612703 -11.085797 1.880790849211783e-38 1700951363
0.791209 -2.576444 -11.224743 1.880790849211783e-38 1700951363
0.820338 -1.927212 -11.637988 1.880790849211783e-38 1700951363
0.842817 -1.874662 -11.956896 1.880790849211783e-38 1700951363
0.799741 -2.494952 -11.345789 1.880790849211783e-38 1700951363
0.799548 -2.410670 -11.343051 1.880790849211783e-38 1700951363
0.821359 -1.523151 -12.175927 1.880790849211783e-38 1700951363
0.831283 -1.478437 -12.323050 1.880790849211783e-38 1700951363
0.807065 -1.798142 -11.964041 1.880790849211783e-38 1700951363
0.816087 -1.738928 -12.097784 1.880790849211783e-38 1700951363
0.818649 -1.677255 -12.135763 1.880790849211783e-38 1700951363
0.819425 -1.609161 -12.147267 1.880790849211783e-38 1700951363
0.769656 -2.295716 -11.409473 1.880790849211783e-38 1700951363
0.778500 -2.201510 -11.540581 1.880790849211783e-38 1700951363
0.769460 -3.367806 -11.406576 1.880790849211783e-38 1700951363
0.755442 -3.221558 -11.198768 1.880790849211783e-38 1700951363
0.759438 -3.127886 -11.258010 1.880790849211783e-38 1700951363
0.737951 -2.940771 -10.939482 1.880790849211783e-38 1700951363
0.734182 -2.814257 -10.883604 1.880790849211783e-38 1700951363
0.747815 -2.734785 -11.085706 1.880790849211783e-38 1700951363
0.788607 -3.715071 -11.690406 1.880790849211783e-38 1700951363
0.791355 -3.593424 -11.731148 1.880790849211783e-38 1700951363
0.785274 -2.127650 -11.640997 1.880790849211783e-38 1700951363
0.788296 -2.030496 -11.685806 1.880790849211783e-38 1700951363
0.749643 -2.618522 -11.112800 1.880790849211783e-38 1700951363
0.750921 -2.554568 -11.131755 1.880790849211783e-38 1700951363
0.788309 -1.934760 -11.685996 1.880790849211783e-38 1700951363
0.800185 -1.859404 -11.862042 1.880790849211783e-38 1700951363
0.759645 -2.475808 -11.261071 1.880790849211783e-38 1700951363
0.766356 -2.413890 -11.360563 1.880790849211783e-38 1700951363
0.785316 -1.524479 -12.188965 1.880790849211783e-38 1700951363
0.794231 -1.478656 -12.327325 1.880790849211783e-38 1700951363
0.784257 -1.387778 -12.172519 1.880790849211783e-38 1700951363
0.769771 -1.795327 -11.947685 1.880790849211783e-38 1700951363
0.767380 -1.711678 -11.910572 1.880790849211783e-38 1700951363
0.778902 -1.670515 -12.089398 1.880790849211783e-38 1700951363
0.775662 -1.594517 -12.039117 1.880790849211783e-38 1700951363
0.729279 -2.277099 -11.319202 1.880790849211783e-38 1700951363
0.743586 -2.201202 -11.541261 1.880790849211783e-38 1700951363
0.736977 -3.376615 -11.438686 1.880790849211783e-38 1700951363
0.718251 -3.206325 -11.148034 1.880790849211783e-38 1700951363
0.727135 -3.135018 -11.285927 1.880790849211783e-38 1700951363
0.712609 -2.972702 -11.060464 1.880790849211783e-38 1700951363
0.699579 -2.807136 -10.858223 1.880790849211783e-38 1700951363
0.712034 -2.725815 -11.051543 1.880790849211783e-38 1700951363
0.753428 -3.715479 -11.694015 1.880790849211783e-38 1700951363
0.760536 -3.615124 -11.804338 1.880790849211783e-38 1700951363
0.747645 -2.120514 -11.604258 1.880790849211783e-38 1700951363
0.748757 -2.018925 -11.621524 1.880790849211783e-38 1700951363
0.707615 -2.587411 -10.982952 1.880790849211783e-38 1700951363
0.717525 -2.555211 -11.136769 1.880790849211783e-38 1700951363
0.752657 -1.933722 -11.682053 1.880790849211783e-38 1700951363
0.763021 -1.856036 -11.842910 1.880790849211783e-38 1700951363
0.719569 -2.454966 -11.168494 1.880790849211783e-38 1700951363
0.729670 -2.405913 -11.325274 1.880790849211783e-38 1700951363
0.745014 -1.517270 -12.133625 1.880790849211783e-38 1700951363
0.751713 -1.468229 -12.242719 1.880790849211783e-38 1700951363
0.745910 -1.384744 -12.148214 1.880790849211783e-38 1700951363
0.721119 -1.764455 -11.744465 1.880790849211783e-38 1700951363
0.733608 -1.716710 -11.947854 1.880790849211783e-38 1700951363
0.738399 -1.661424 -12.025887 1.880790849211783e-38 1700951363
0.735318 -1.585817 -11.975705 1.880790849211783e-38 1700951363
0.690658 -2.262419 -11.248364 1.880790849211783e-38 1700951363
0.710396 -2.206229 -11.569816 1.880790849211783e-38 1700951363
0.698334 -3.356699 -11.373377 1.880790849211783e-38 1700951363
0.691504 -3.238530 -11.262142 1.880790849211783e-38 1700951363
0.685669 -3.101422 -11.167100 1.880790849211783e-38 1700951363
0.677848 -2.966568 -11.039735 1.880790849211783e-38 1700951363
0.671247 -2.825732 -10.932225 1.880790849211783e-38 1700951363
0.679859 -2.730460 -11.072478 1.880790849211783e-38 1700951363
0.723317 -3.742171 -11.780259 1.880790849211783e-38 1700951363
0.724132 -3.611129 -11.793530 1.880790849211783e-38 1700951363
0.710300 -2.113535 -11.568265 1.880790849211783e-38 1700951363
0.705726 -1.996352 -11.493769 1.880790849211783e-38 1700951363
0.681976 -2.616129 -11.106961 1.880790849211783e-38 1700951363
0.682382 -2.549407 -11.113580 1.880790849211783e-38 1700951363
0.705625 -1.901921 -11.492112 1.880790849211783e-38 1700951363
0.718138 -1.832651 -11.695917 1.880790849211783e-38 1700951363
0.688523 -2.464409 -11.213582 1.880790849211783e-38 1700951363
0.691582 -2.392315 -11.263402 1.880790849211783e-38 1700951363
0.705146 -1.510267 -12.079802 1.880790849211783e-38 1700951363
0.709130 -1.456613 -12.148056 1.880790849211783e-38 1700951363
0.698961 -1.364622 -11.973844 1.880790849211783e-38 1700951363
0.693374 -1.784216 -11.878142 1.880790849211783e-38 1700951363
0.683144 -1.681209 -11.702891 1.880790849211783e-38 1700951363
0.699494 -1.655198 -11.982985 1.880790849211783e-38 1700951363
0.700486 -1.588743 -11.999970 1.880790849211783e-38 1700951363
0.657475 -2.264984 -11.263148 1.880790849211783e-38 1700951363
0.669283 -2.185930 -11.465437 1.880790849211783e-38 1700951363
0.666757 -3.370489 -11.422161 1.880790849211783e-38 1700951363
0.653024 -3.216314 -11.186906 1.880790849211783e-38 1700951363
0.654787 -3.114748 -11.217108 1.880790849211783e-38 1700951363
0.650005 -2.991677 -11.135188 1.880790849211783e-38 1700951363
0.635616 -2.813970 -10.888689 1.880790849211783e-38 1700951363
0.640631 -2.705835 -10.974601 1.880790849211783e-38 1700951363
0.684433 -3.723933 -11.724964 1.880790849211783e-38 1700951363
0.684668 -3.590721 -11.728997 1.880790849211783e-38 1700951363
0.672271 -2.103722 -11.516631 1.880790849211783e-38 1700951363
0.678663 -2.018977 -11.626132 1.880790849211783e-38 1700951363
0.641718 -2.588871 -10.993218 1.880790849211783e-38 1700951363
0.637667 -2.505426 -10.923831 1.880790849211783e-38 1700951363
0.673343 -1.908673 -11.534994 1.880790849211783e-38 1700951363
0.678761 -1.821650 -11.627808 1.880790849211783e-38 1700951363
0.649982 -2.446650 -11.134787 1.880790849211783e-38 1700951363
0.656685 -2.388955 -11.249613 1.880790849211783e-38 1700951363
0.657171 -1.484206 -11.873397 1.880790849211783e-38 1700951363
0.671636 -1.454766 -12.134735 1.880790849211783e-38 1700951363
0.666250 -1.371632 -12.037418 1.880790849211783e-38 1700951363
0.680016 -1.314453 -12.286147 1.880790849211783e-38 1700951363
0.652035 -1.769260 -11.780593 1.880790849211783e-38 1700951363
0.656515 -1.703707 -11.861535 1.880790849211783e-38 1700951363
0.654640 -1.633464 -11.827670 1.880790849211783e-38 1700951363
0.653992 -1.564112 -11.815952 1.880790849211783e-38 1700951363
0.623049 -2.263338 -11.256894 1.880790849211783e-38 1700951363
0.633847 -2.182990 -11.451977 1.880790849211783e-38 1700951363
0.631126 -3.364206 -11.402825 1.880790849211783e-38 1700951363
0.622811 -3.234644 -11.252590 1.880790849211783e-38 1700951363
0.618308 -3.101480 -11.171243 1.880790849211783e-38 1700951363
0.616308 -2.991141 -11.135101 1.880790849211783e-38 1700951363
0.607323 -2.835212 -10.972767 1.880790849211783e-38 1700951363
0.604969 -2.694434 -10.930232 1.880790849211783e-38 1700951363
0.643187 -3.690195 -11.620730 1.880790849211783e-38 1700951363
0.655333 -3.624137 -11.840181 1.880790849211783e-38 1700951363
0.636337 -2.099770 -11.496968 1.880790849211783e-38 1700951363
0.638323 -2.002436 -11.532857 1.880790849211783e-38 1700951363
0.599737 -2.551339 -10.835703 1.880790849211783e-38 1700951363
0.609471 -2.525118 -11.011575 1.880790849211783e-38 1700951363
0.635573 -1.899773 -11.483175 1.880790849211783e-38 1700951363
0.642880 -1.819362 -11.615194 1.880790849211783e-38 1700951363
0.614578 -2.439432 -11.103837 1.880790849211783e-38 1700951363
0.618315 -2.371931 -11.171364 1.880790849211783e-38 1700951363
0.626842 -1.497306 -11.980133 1.880790849211783e-38 1700951363
0.628950 -1.440827 -12.020409 1.880790849211783e-38 1700951363
0.627174 -1.365605 -11.986474 1.880790849211783e-38 1700951363
0.642837 -1.314205 -12.285827 1.880790849211783e-38 1700951363
0.613013 -1.759247 -11.715825 1.880790849211783e-38 1700951363
0.608736 -1.670767 -11.634087 1.880790849211783e-38 1700951363
0.642870 -1.258944 -12.286459 1.880790849211783e-38 1700951363
0.618785 -1.632988 -11.826144 1.880790849211783e-38 1700951363
0.617882 -1.562923 -11.808887 1.880790849211783e-38 1700951363
0.578468 -2.222507 -11.055613 1.880790849211783e-38 1700951363
0.592744 -2.159091 -11.328443 1.880790849211783e-38 1700951363
0.597288 -3.367341 -11.415305 1.880790849211783e-38 1700951363
0.588168 -3.230786 -11.240993 1.880790849211783e-38 1700951363
0.582890 -3.092340 -11.140130 1.880790849211783e-38 1700951363
0.584570 -3.000627 -11.172231 1.880790849211783e-38 1700951363
0.569518 -2.811964 -10.884561 1.880790849211783e-38 1700951363
0.567934 -2.675277 -10.854285 1.880790849211783e-38 1700951363
0.612507 -3.716722 -11.706169 1.880790849211783e-38 1700951363
0.620150 -3.627236 -11.852231 1.880790849211783e-38 1700951363
0.593982 -2.072978 -11.352118 1.880790849211783e-38 1700951363
0.596891 -1.980386 -11.407713 1.880790849211783e-38 1700951363
0.563666 -2.536098 -10.772723 1.880790849211783e-38 1700951363
0.570298 -2.499002 -10.899461 1.880790849211783e-38 1700951363
0.599839 -1.896301 -11.464054 1.880790849211783e-38 1700951363
0.607355 -1.817893 -11.607703 1.880790849211783e-38 1700951363
0.577609 -2.424835 -11.039190 1.880790849211783e-38 1700951363
0.583443 -2.367156 -11.150682 1.880790849211783e-38 1700951363
0.590461 -1.496674 -11.976912 1.880790849211783e-38 1700951363
0.586142 -1.424894 -11.889307 1.880790849211783e-38 1700951363
0.584433 -1.350379 -11.854646 1.880790849211783e-38 1700951363
0.594050 -1.288751 -12.049712 1.880790849211783e-38 1700951363
0.577954 -1.760087 -11.723216 1.880790849211783e-38 1700951363
0.578797 -1.685763 -11.740310 1.880790849211783e-38 1700951363
0.597776 -1.242239 -12.125294 1.880790849211783e-38 1700951363
0.579929 -1.624060 -11.763286 1.880790849211783e-38 1700951363
0.581668 -1.561316 -11.798553 1.880790849211783e-38 1700951363
0.548460 -2.236107 -11.124969 1.880790849211783e-38 1700951363
0.558468 -2.158669 -11.327962 1.880790849211783e-38 1700951363
0.564433 -3.376754 -11.448969 1.880790849211783e-38 1700951363
0.556502 -3.243823 -11.288085 1.880790849211783e-38 1700951363
0.554248 -3.120240 -11.242360 1.880790849211783e-38 1700951363
0.541015 -2.946922 -10.973949 1.880790849211783e-38 1700951363
0.541363 -2.836447 -10.981012 1.880790849211783e-38 1700951363
0.533496 -2.666774 -10.821441 1.880790849211783e-38 1700951363
0.577380 -3.717871 -11.711582 1.880790849211783e-38 1700951363
0.585380 -3.633294 -11.873844 1.880790849211783e-38 1700951363
0.558961 -2.070076 -11.337964 1.880790849211783e-38 1700951363
0.558556 -1.966549 -11.329741 1.880790849211783e-38 1700951363
0.532735 -2.543540 -10.805992 1.880790849211783e-38 1700951363
0.542702 -2.523540 -11.008171 1.880790849211783e-38 1700951363
0.558188 -1.872566 -11.322296 1.880790849211783e-38 1700951363
0.565791 -1.797072 -11.476515 1.880790849211783e-38 1700951363
0.545475 -2.430004 -11.064417 1.880790849211783e-38 1700951363
0.546459 -2.352720 -11.084381 1.880790849211783e-38 1700951363
0.548259 -1.480267 -11.847326 1.880790849211783e-38 1700951363
0.549037 -1.421671 -11.864129 1.880790849211783e-38 1700951363
0.550645 -1.355223 -11.898881 1.880790849211783e-38 1700951363
0.559722 -1.293410 -12.095016 1.880790849211783e-38 1700951363
0.539851 -1.751188 -11.665623 1.880790849211783e-38 1700951363
0.538733 -1.671329 -11.641465 1.880790849211783e-38 1700951363
0.562475 -1.245053 -12.154510 1.880790849211783e-38 1700951363
0.543147 -1.620177 -11.736853 1.880790849211783e-38 1700951363
0.543741 -1.554625 -11.749687 1.880790849211783e-38 1700951363
0.506345 -2.198934 -10.941605 1.880790849211783e-38 1700951363
0.521786 -2.148317 -11.275267 1.880790849211783e-38 1700951363
0.529785 -3.376018 -11.448122 1.880790849211783e-38 1700951363
0.520865 -3.233955 -11.255366 1.880790849211783e-38 1700951363
0.520534 -3.121413 -11.248209 1.880790849211783e-38 1700951363
0.510545 -2.962180 -11.032362 1.880790849211783e-38 1700951363
0.510195 -2.847346 -11.024796 1.880790849211783e-38 1700951363
0.501113 -2.668142 -10.828551 1.880790849211783e-38 1700951363
0.537985 -3.689950 -11.625301 1.880790849211783e-38 1700951363
0.545513 -3.606498 -11.787971 1.880790849211783e-38 1700951363
0.522791 -2.062296 -11.296977 1.880790849211783e-38 1700951363
0.525705 -1.971510 -11.359961 1.880790849211783e-38 1700951363
0.502327 -2.554656 -10.854781 1.880790849211783e-38 1700951363
0.499294 -2.472997 -10.789246 1.880790849211783e-38 1700951363
0.523236 -1.869699 -11.306594 1.880790849211783e-38 1700951363
0.530513 -1.794832 -11.463858 1.880790849211783e-38 1700951363
0.506347 -2.402694 -10.941643 1.880790849211783e-38 1700951363
0.508983 -2.334177 -10.998606 1.880790849211783e-38 1700951363
0.511045 -1.475992 -11.814707 1.880790849211783e-38 1700951363
0.511766 -1.417554 -11.831363 1.880790849211783e-38 1700951363
0.507958 -1.337326 -11.743330 1.880790849211783e-38 1700951363
0.518932 -1.282759 -11.997040 1.880790849211783e-38 1700951363
0.498904 -1.731199 -11.534024 1.880790849211783e-38 1700951363
0.494866 -1.642279 -11.440663 1.880790849211783e-38 1700951363
0.518966 -1.228836 -11.997813 1.880790849211783e-38 1700951363
0.524663 -1.162910 -12.129535 1.880790849211783e-38 1700951363
0.501453 -1.600096 -11.592952 1.880790849211783e-38 1700951363
0.510305 -1.560753 -11.797590 1.880790849211783e-38 1700951363
0.478915 -2.224816 -11.071886 1.880790849211783e-38 1700951363
0.481925 -2.122541 -11.141487 1.880790849211783e-38 1700951363
0.495787 -3.379639 -11.461949 1.880790849211783e-38 1700951363
0.487620 -3.238623 -11.273135 1.880790849211783e-38 1700951363
0.487688 -3.128344 -11.274706 1.880790849211783e-38 1700951363
0.476429 -2.956968 -11.014435 1.880790849211783e-38 1700951363
0.472037 -2.818062 -10.912880 1.880790849211783e-38 1700951363
0.474174 -2.700728 -10.962281 1.880790849211783e-38 1700951363
0.505482 -3.708744 -11.686090 1.880790849211783e-38 1700951363
0.509539 -3.603538 -11.779887 1.880790849211783e-38 1700951363
0.487472 -2.057045 -11.269734 1.880790849211783e-38 1700951363
0.490892 -1.969305 -11.348789 1.880790849211783e-38 1700951363
0.465343 -2.531567 -10.758128 1.880790849211783e-38 1700951363
0.463964 -2.458226 -10.726252 1.880790849211783e-38 1700951363
0.484060 -1.850309 -11.190847 1.880790849211783e-38 1700951363
0.494169 -1.788435 -11.424546 1.880790849211783e-38 1700951363
0.473989 -2.405965 -10.958018 1.880790849211783e-38 1700951363
0.477227 -2.341132 -11.032864 1.880790849211783e-38 1700951363
0.469448 -1.457473 -11.667942 1.880790849211783e-38 1700951363
0.479137 -1.426648 -11.908771 1.880790849211783e-38 1700951363
0.478960 -1.355492 -11.904351 1.880790849211783e-38 1700951363
0.481710 -1.279996 -11.972703 1.880790849211783e-38 1700951363
0.467302 -1.743074 -11.614601 1.880790849211783e-38 1700951363
0.464461 -1.656902 -11.543985 1.880790849211783e-38 1700951363
0.483732 -1.231258 -12.022976 1.880790849211783e-38 1700951363
0.484677 -1.154800 -12.046466 1.880790849211783e-38 1700951363
0.465220 -1.595741 -11.562854 1.880790849211783e-38 1700951363
0.464851 -1.528295 -11.553696 1.880790849211783e-38 1700951363
0.434835 -2.171448 -10.807655 1.880790849211783e-38 1700951363
0.448503 -2.123391 -11.147352 1.880790849211783e-38 1700951363
0.462362 -3.388020 -11.491820 1.880790849211783e-38 1700951363
0.452236 -3.228738 -11.240142 1.880790849211783e-38 1700951363
0.452932 -3.123164 -11.257456 1.880790849211783e-38 1700951363
0.442392 -2.951509 -10.995485 1.880790849211783e-38 1700951363
0.481910 -3.930678 -11.977686 1.880790849211783e-38 1700951363
0.438403 -2.813437 -10.896343 1.880790849211783e-38 1700951363
0.437441 -2.678253 -10.872426 1.880790849211783e-38 1700951363
0.468988 -3.698887 -11.656499 1.880790849211783e-38 1700951363
0.471410 -3.583758 -11.716702 1.880790849211783e-38 1700951363
0.447485 -2.029835 -11.122066 1.880790849211783e-38 1700951363
0.451614 -1.947524 -11.224680 1.880790849211783e-38 1700951363
0.425740 -2.489714 -10.581602 1.880790849211783e-38 1700951363
0.432328 -2.462291 -10.745339 1.880790849211783e-38 1700951363
0.453536 -1.863567 -11.272453 1.880790849211783e-38 1700951363
0.460005 -1.789570 -11.433232 1.880790849211783e-38 1700951363
0.436517 -2.381830 -10.849464 1.880790849211783e-38 1700951363
0.439485 -2.317577 -10.923233 1.880790849211783e-38 1700951363
0.429291 -1.440810 -11.535892 1.880790849211783e-38 1700951363
0.438983 -1.413014 -11.796335 1.880790849211783e-38 1700951363
0.436004 -1.333924 -11.716300 1.880790849211783e-38 1700951363
0.442920 -1.272305 -11.902151 1.880790849211783e-38 1700951363
0.425779 -1.716901 -11.441541 1.880790849211783e-38 1700951363
0.428086 -1.650901 -11.503517 1.880790849211783e-38 1700951363
0.451997 -1.243717 -12.146052 1.880790849211783e-38 1700951363
0.444598 -1.145153 -11.947224 1.880790849211783e-38 1700951363
0.426740 -1.582378 -11.467360 1.880790849211783e-38 1700951363
0.430873 -1.531385 -11.578412 1.880790849211783e-38 1700951363
0.404714 -2.184817 -10.875465 1.880790849211783e-38 1700951363
0.417383 -2.136203 -11.215919 1.880790849211783e-38 1700951363
0.427295 -3.384806 -11.482260 1.880790849211783e-38 1700951363
0.414642 -3.200248 -11.142260 1.880790849211783e-38 1700951363
0.415515 -3.097354 -11.165726 1.880790849211783e-38 1700951363
0.414304 -2.988119 -11.133169 1.880790849211783e-38 1700951363
0.448463 -3.954303 -12.051084 1.880790849211783e-38 1700951363
0.407412 -2.826434 -10.947957 1.880790849211783e-38 1700951363
0.403255 -2.669035 -10.836269 1.880790849211783e-38 1700951363
0.440974 -3.759804 -11.849854 1.880790849211783e-38 1700951363
0.435151 -3.576201 -11.693361 1.880790849211783e-38 1700951363
0.415041 -2.035237 -11.152964 1.880790849211783e-38 1700951363
0.413156 -1.926068 -11.102314 1.880790849211783e-38 1700951363
0.395584 -2.500840 -10.630131 1.880790849211783e-38 1700951363
0.396804 -2.443119 -10.662918 1.880790849211783e-38 1700951363
0.417853 -1.856089 -11.228530 1.880790849211783e-38 1700951363
0.423366 -1.780510 -11.376680 1.880790849211783e-38 1700951363
0.400545 -2.362672 -10.763453 1.880790849211783e-38 1700951363
0.409066 -2.331982 -10.992414 1.880790849211783e-38 1700951363
0.396445 -1.447928 -11.594131 1.880790849211783e-38 1700951363
0.403345 -1.412811 -11.795914 1.880790849211783e-38 1700951363
0.399359 -1.329573 -11.679339 1.880790849211783e-38 1700951363
0.407245 -1.273004 -11.909978 1.880790849211783e-38 1700951363
0.388942 -1.706687 -11.374700 1.880790849211783e-38 1700951363
0.389605 -1.635021 -11.394094 1.880790849211783e-38 1700951363
0.409137 -1.225077 -11.965307 1.880790849211783e-38 1700951363
0.405826 -1.137481 -11.868459 1.880790849211783e-38 1700951363
0.390892 -1.577289 -11.431713 1.880790849211783e-38 1700951363
0.395210 -1.528522 -11.558014 1.880790849211783e-38 1700951363
0.410186 -1.061373 -11.995982 1.880790849211783e-38 1700951363
0.372968 -2.191024 -10.907539 1.880790849211783e-38 1700951363
0.375568 -2.091724 -10.983572 1.880790849211783e-38 1700951363
0.393967 -3.396055 -11.521661 1.880790849211783e-38 1700951363
0.389300 -3.269664 -11.385171 1.880790849211783e-38 1700951363
0.383353 -3.109643 -11.211235 1.880790849211783e-38 1700951363
0.379803 -2.980887 -11.107422 1.880790849211783e-38 1700951363
0.410673 -3.940469 -12.010217 1.880790849211783e-38 1700951363
0.374997 -2.831013 -10.966876 1.880790849211783e-38 1700951363
0.372141 -2.680339 -10.883334 1.880790849211783e-38 1700951363
0.397407 -3.687193 -11.622257 1.880790849211783e-38 1700951363
0.400098 -3.578138 -11.700956 1.880790849211783e-38 1700951363
0.383027 -2.043911 -11.201704 1.880790849211783e-38 1700951363
0.384801 -1.952098 -11.253572 1.880790849211783e-38 1700951363
0.362127 -2.491245 -10.590486 1.880790849211783e-38 1700951363
0.367723 -2.463751 -10.754127 1.880790849211783e-38 1700951363
0.378385 -1.829017 -11.065945 1.880790849211783e-38 1700951363
0.384684 -1.760520 -11.250162 1.880790849211783e-38 1700951363
0.368430 -2.364913 -10.774820 1.880790849211783e-38 1700951363
0.371190 -2.302697 -10.855540 1.880790849211783e-38 1700951363
0.363737 -1.456987 -11.667817 1.880790849211783e-38 1700951363
0.365004 -1.402196 -11.708437 1.880790849211783e-38 1700951363
0.360214 -1.315264 -11.554788 1.880790849211783e-38 1700951363
0.367246 -1.259025 -11.780355 1.880790849211783e-38 1700951363
0.355287 -1.709827 -11.396749 1.880790849211783e-38 1700951363
0.358353 -1.649353 -11.495105 1.880790849211783e-38 1700951363
0.368729 -1.210893 -11.827939 1.880790849211783e-38 1700951363
0.367023 -1.128240 -11.773202 1.880790849211783e-38 1700951363
0.357877 -1.583773 -11.479841 1.880790849211783e-38 1700951363
0.360338 -1.528472 -11.558767 1.880790849211783e-38 1700951363
0.371452 -1.054129 -11.915277 1.880790849211783e-38 1700951363
0.338981 -2.184012 -10.873701 1.880790849211783e-38 1700951363
0.342908 -2.094584 -10.999676 1.880790849211783e-38 1700951363
0.355811 -3.363862 -11.413567 1.880790849211783e-38 1700951363
0.351276 -3.235716 -11.268073 1.880790849211783e-38 1700951363
0.349144 -3.106138 -11.199703 1.880790849211783e-38 1700951363
0.343416 -2.956047 -11.015949 1.880790849211783e-38 1700951363
0.373666 -3.932233 -11.986296 1.880790849211783e-38 1700951363
0.341991 -2.831608 -10.970260 1.880790849211783e-38 1700951363
0.339616 -2.682718 -10.894068 1.880790849211783e-38 1700951363
0.366379 -3.728160 -11.752545 1.880790849211783e-38 1700951363
0.368863 -3.617923 -11.832224 1.880790849211783e-38 1700951363
0.343972 -2.013077 -11.033808 1.880790849211783e-38 1700951363
0.345045 -1.919758 -11.068227 1.880790849211783e-38 1700951363
0.330656 -2.494803 -10.606658 1.880790849211783e-38 1700951363
0.331896 -2.438835 -10.646417 1.880790849211783e-38 1700951363
0.347762 -1.843613 -11.155354 1.880790849211783e-38 1700951363
0.349983 -1.756659 -11.226598 1.880790849211783e-38 1700951363
0.334545 -2.355150 -10.731397 1.880790849211783e-38 1700951363
0.337887 -2.298880 -10.838614 1.880790849211783e-38 1700951363
0.326071 -1.446002 -11.580880 1.880790849211783e-38 1700951363
0.326339 -1.387936 -11.590404 1.880790849211783e-38 1700951363
0.325963 -1.317680 -11.577048 1.880790849211783e-38 1700951363
0.327858 -1.244376 -11.644325 1.880790849211783e-38 1700951363
0.320262 -1.706346 -11.374562 1.880790849211783e-38 1700951363
0.319853 -1.629829 -11.360046 1.880790849211783e-38 1700951363
0.332001 -1.207053 -11.791479 1.880790849211783e-38 1700951363
0.331603 -1.128536 -11.777339 1.880790849211783e-38 1700951363
0.318872 -1.562299 -11.325198 1.880790849211783e-38 1700951363
0.322700 -1.515425 -11.461132 1.880790849211783e-38 1700951363
0.335761 -1.054896 -11.925012 1.880790849211783e-38 1700951363
0.332511 -0.991555 -11.809586 1.880790849211783e-38 1700951363
0.302903 -2.160588 -10.758042 1.880790849211783e-38 1700951363
0.308607 -2.086957 -10.960604 1.880790849211783e-38 1700951363
0.324464 -3.396044 -11.523787 1.880790849211783e-38 1700951363
0.316452 -3.227145 -11.239233 1.880790849211783e-38 1700951363
0.315073 -3.103242 -11.190262 1.880790849211783e-38 1700951363
0.312016 -2.973418 -11.081676 1.880790849211783e-38 1700951363
0.334919 -3.901971 -11.895114 1.880790849211783e-38 1700951363
0.310399 -2.845289 -11.024251 1.880790849211783e-38 1700951363
0.305346 -2.670342 -10.844783 1.880790849211783e-38 1700951363
0.330807 -3.726725 -11.749072 1.880790849211783e-38 1700951363
0.333149 -3.617615 -11.832272 1.880790849211783e-38 1700951363
0.308839 -2.001048 -10.968856 1.880790849211783e-38 1700951363
0.311933 -1.921413 -11.078756 1.880790849211783e-38 1700951363
0.298795 -2.495866 -10.612123 1.880790849211783e-38 1700951363
0.297286 -2.418483 -10.558519 1.880790849211783e-38 1700951363
0.310602 -1.822976 -11.031473 1.880790849211783e-38 1700951363
0.314107 -1.745446 -11.155937 1.880790849211783e-38 1700951363
0.299393 -2.333423 -10.633348 1.880790849211783e-38 1700951363
0.302805 -2.280849 -10.754562 1.880790849211783e-38 1700951363
0.289069 -1.435707 -11.499354 1.880790849211783e-38 1700951363
0.291307 -1.387579 -11.588357 1.880790849211783e-38 1700951363
0.289350 -1.310003 -11.510520 1.880790849211783e-38 1700951363
0.293901 -1.249323 -11.691555 1.880790849211783e-38 1700951363
0.282413 -1.685208 -11.234562 1.880790849211783e-38 1700951363
0.283330 -1.616928 -11.271033 1.880790849211783e-38 1700951363
0.297579 -1.211704 -11.837873 1.880790849211783e-38 1700951363
0.297619 -1.134397 -11.839454 1.880790849211783e-38 1700951363
0.285285 -1.565431 -11.348818 1.880790849211783e-38 1700951363
0.288115 -1.515338 -11.461391 1.880790849211783e-38 1700951363
0.296506 -1.043329 -11.795208 1.880790849211783e-38 1700951363
0.297469 -0.993483 -11.833501 1.880790849211783e-38 1700951363
0.271698 -2.170513 -10.808329 1.880790849211783e-38 1700951363
0.271790 -2.058493 -10.811976 1.880790849211783e-38 1700951363
0.285758 -3.349752 -11.367620 1.880790849211783e-38 1700951363
0.282878 -3.230859 -11.253069 1.880790849211783e-38 1700951363
0.282067 -3.111461 -11.220803 1.880790849211783e-38 1700951363
0.278696 -2.974529 -11.086708 1.880790849211783e-38 1700951363
0.301751 -3.937316 -12.003827 1.880790849211783e-38 1700951363
0.273312 -2.805906 -10.872534 1.880790849211783e-38 1700951363
0.274332 -2.686949 -10.913106 1.880790849211783e-38 1700951363
0.297863 -3.758172 -11.849165 1.880790849211783e-38 1700951363
0.297552 -3.618715 -11.836822 1.880790849211783e-38 1700951363
0.276986 -2.009977 -11.018684 1.880790849211783e-38 1700951363
0.275045 -1.897450 -10.941468 1.880790849211783e-38 1700951363
0.268096 -2.508102 -10.665009 1.880790849211783e-38 1700951363
0.264467 -2.409614 -10.520645 1.880790849211783e-38 1700951363
0.275946 -1.813878 -10.977298 1.880790849211783e-38 1700951363
0.280749 -1.747254 -11.168388 1.880790849211783e-38 1700951363
0.267969 -2.339079 -10.659982 1.880790849211783e-38 1700951363
0.272348 -2.297548 -10.834172 1.880790849211783e-38 1700951363
0.253922 -1.433088 -11.479196 1.880790849211783e-38 1700951363
0.252844 -1.368578 -11.430484 1.880790849211783e-38 1700951363
0.252515 -1.299105 -11.415576 1.880790849211783e-38 1700951363
0.257917 -1.245843 -11.659819 1.880790849211783e-38 1700951363
0.250766 -1.700382 -11.336525 1.880790849211783e-38 1700951363
0.251417 -1.630431 -11.365963 1.880790849211783e-38 1700951363
0.258928 -1.198073 -11.705531 1.880790849211783e-38 1700951363
0.259118 -1.122305 -11.714096 1.880790849211783e-38 1700951363
0.249266 -1.554271 -11.268713 1.880790849211783e-38 1700951363
0.251065 -1.500511 -11.350059 1.880790849211783e-38 1700951363
0.260126 -1.040113 -11.759689 1.880790849211783e-38 1700951363
0.263135 -0.998635 -11.895720 1.880790849211783e-38 1700951363
0.265157 -0.930328 -11.987108 1.880790849211783e-38 1700951363
0.236560 -2.147460 -10.694299 1.880790849211783e-38 1700951363
0.241171 -2.075625 -10.902740 1.880790849211783e-38 1700951363
0.253279 -3.373822 -11.450121 1.880790849211783e-38 1700951363
0.252799 -3.280970 -11.428420 1.880790849211783e-38 1700951363
0.249446 -3.126785 -11.276868 1.880790849211783e-38 1700951363
0.245639 -2.979161 -11.104762 1.880790849211783e-38 1700951363
0.267377 -3.964472 -12.087481 1.880790849211783e-38 1700951363
0.242879 -2.833434 -10.979984 1.880790849211783e-38 1700951363
0.240720 -2.679189 -10.882361 1.880790849211783e-38 1700951363
0.260543 -3.735494 -11.778504 1.880790849211783e-38 1700951363
0.261205 -3.609788 -11.808464 1.880790849211783e-38 1700951363
0.242171 -1.996937 -10.947978 1.880790849211783e-38 1700951363
0.242313 -1.899552 -10.954371 1.880790849211783e-38 1700951363
0.234307 -2.490865 -10.592469 1.880790849211783e-38 1700951363
0.231923 -2.401207 -10.484686 1.880790849211783e-38 1700951363
0.242001 -1.807634 -10.940292 1.880790849211783e-38 1700951363
0.245040 -1.732941 -11.077688 1.880790849211783e-38 1700951363
0.235097 -2.331933 -10.628169 1.880790849211783e-38 1700951363
0.237844 -2.280034 -10.752350 1.880790849211783e-38 1700951363
0.218062 -1.424984 -11.414989 1.880790849211783e-38 1700951363
0.217986 -1.366162 -11.411008 1.880790849211783e-38 1700951363
0.217657 -1.296541 -11.393755 1.880790849211783e-38 1700951363
0.222143 -1.242429 -11.628589 1.880790849211783e-38 1700951363
0.213671 -1.677568 -11.185122 1.880790849211783e-38 1700951363
0.212973 -1.599146 -11.148569 1.880790849211783e-38 1700951363
0.222912 -1.194247 -11.668876 1.880790849211783e-38 1700951363
0.222408 -1.115377 -11.642503 1.880790849211783e-38 1700951363
0.214837 -1.551063 -11.246158 1.880790849211783e-38 1700951363
0.216154 -1.495798 -11.315110 1.880790849211783e-38 1700951363
0.221973 -1.027668 -11.619699 1.880790849211783e-38 1700951363
0.224362 -0.985900 -11.744748 1.880790849211783e-38 1700951363
0.225392 -0.915649 -11.798702 1.880790849211783e-38 1700951363
0.203809 -2.142225 -10.668887 1.880790849211783e-38 1700951363
0.206909 -2.061865 -10.831135 1.880790849211783e-38 1700951363
0.219250 -3.381582 -11.477171 1.880790849211783e-38 1700951363
0.217290 -3.265300 -11.374546 1.880790849211783e-38 1700951363
0.214974 -3.120070 -11.253348 1.880790849211783e-38 1700951363
0.212832 -2.988754 -11.141213 1.880790849211783e-38 1700951363
0.229415 -3.938578 -12.009278 1.880790849211783e-38 1700951363
0.207873 -2.807876 -10.881618 1.880790849211783e-38 1700951363
0.208711 -2.689636 -10.925472 1.880790849211783e-38 1700951363
0.224535 -3.727441 -11.753843 1.880790849211783e-38 1700951363
0.225021 -3.600644 -11.779284 1.880790849211783e-38 1700951363
0.207758 -1.983609 -10.875588 1.880790849211783e-38 1700951363
0.209716 -1.903548 -10.978099 1.880790849211783e-38 1700951363
0.202314 -2.490273 -10.590610 1.880790849211783e-38 1700951363
0.202193 -2.423863 -10.584267 1.880790849211783e-38 1700951363
0.209566 -1.812470 -10.970242 1.880790849211783e-38 1700951363
0.211574 -1.732464 -11.075327 1.880790849211783e-38 1700951363
0.206108 -2.367121 -10.789214 1.880790849211783e-38 1700951363
0.203838 -2.262514 -10.670390 1.880790849211783e-38 1700951363
0.182500 -1.416189 -11.345142 1.880790849211783e-38 1700951363
0.182416 -1.357577 -11.339904 1.880790849211783e-38 1700951363
0.183382 -1.297175 -11.399936 1.880790849211783e-38 1700951363
0.188200 -1.249933 -11.699453 1.880790849211783e-38 1700951363
0.181347 -1.690729 -11.273466 1.880790849211783e-38 1700951363
0.180361 -1.608185 -11.212176 1.880790849211783e-38 1700951363
0.186796 -1.188379 -11.612159 1.880790849211783e-38 1700951363
0.186493 -1.110607 -11.593330 1.880790849211783e-38 1700951363
0.180736 -1.549509 -11.235481 1.880790849211783e-38 1700951363
0.180883 -1.486396 -11.244587 1.880790849211783e-38 1700951363
0.188221 -1.034782 -11.700767 1.880790849211783e-38 1700951363
0.187838 -0.980158 -11.676967 1.880790849211783e-38 1700951363
0.190612 -0.919533 -11.849380 1.880790849211783e-38 1700951363
0.170229 -2.124730 -10.582323 1.880790849211783e-38 1700951363
0.174452 -2.064363 -10.844831 1.880790849211783e-38 1700951363
0.184763 -3.383948 -11.485807 1.880790849211783e-38 1700951363
0.180761 -3.225650 -11.237022 1.880790849211783e-38 1700951363
0.178256 -3.072204 -11.081297 1.880790849211783e-38 1700951363
0.177651 -2.962441 -11.043713 1.880790849211783e-38 1700951363
0.195088 -4.093717 -12.127637 1.880790849211783e-38 1700951363
0.192791 -3.930366 -11.984874 1.880790849211783e-38 1700951363
0.175784 -2.819594 -10.927611 1.880790849211783e-38 1700951363
0.175974 -2.692937 -10.939462 1.880790849211783e-38 1700951363
0.189227 -3.730247 -11.763316 1.880790849211783e-38 1700951363
0.189470 -3.600185 -11.778408 1.880790849211783e-38 1700951363
0.172725 -1.958312 -10.737459 1.880790849211783e-38 1700951363
0.175761 -1.894450 -10.926205 1.880790849211783e-38 1700951363
0.170946 -2.498663 -10.626854 1.880790849211783e-38 1700951363
0.169598 -2.414304 -10.543088 1.880790849211783e-38 1700951363
0.173310 -1.779925 -10.773829 1.880790849211783e-38 1700951363
0.177714 -1.728037 -11.047614 1.880790849211783e-38 1700951363
0.170674 -2.327671 -10.609968 1.880790849211783e-38 1700951363
0.170667 -2.249487 -10.609518 1.880790849211783e-38 1700951363
0.148080 -1.414252 -11.330120 1.880790849211783e-38 1700951363
0.148307 -1.358425 -11.347491 1.880790849211783e-38 1700951363
0.147593 -1.284937 -11.292882 1.880790849211783e-38 1700951363
0.148904 -1.217162 -11.393210 1.880790849211783e-38 1700951363
0.144868 -1.662293 -11.084348 1.880790849211783e-38 1700951363
0.147540 -1.619109 -11.288832 1.880790849211783e-38 1700951363
0.151016 -1.182454 -11.554772 1.880790849211783e-38 1700951363
0.153184 -1.122755 -11.720650 1.880790849211783e-38 1700951363
0.145743 -1.537832 -11.151304 1.880790849211783e-38 1700951363
0.145443 -1.470966 -11.128347 1.880790849211783e-38 1700951363
0.153050 -1.035588 -11.710396 1.880790849211783e-38 1700951363
0.153363 -0.984933 -11.734372 1.880790849211783e-38 1700951363
0.155091 -0.920826 -11.866570 1.880790849211783e-38 1700951363
0.138968 -2.134801 -10.632948 1.880790849211783e-38 1700951363
0.141108 -2.055110 -10.796695 1.880790849211783e-38 1700951363
0.151383 -3.412382 -11.582829 1.880790849211783e-38 1700951363
0.148002 -3.250531 -11.324200 1.880790849211783e-38 1700951363
0.145675 -3.090050 -11.146154 1.880790849211783e-38 1700951363
0.143986 -2.955124 -11.016916 1.880790849211783e-38 1700951363
0.158221 -4.086246 -12.106038 1.880790849211783e-38 1700951363
0.157821 -3.959908 -12.075489 1.880790849211783e-38 1700951363
