# .PCD v0.7 - Point Cloud Data file format
VERSION 0.7
FIELDS x y z rgb label
SIZE 4 4 4 4 4
TYPE F F F F U
COUNT 1 1 1 1 1
WIDTH 743
HEIGHT 1
VIEWPOINT 0 0 0 1 0 0 0
POINTS 743
DATA ascii
-0.856113 -3.048313 -11.333014 1.880790849211783e-38 1700951363
-0.829342 -2.840460 -10.978622 1.880790849211783e-38 1700951363
-0.853082 -2.787499 -11.292892 1.880790849211783e-38 1700951363
-0.896680 -2.170759 -11.870028 1.880790849211783e-38 1700951363
-0.909182 -2.092467 -12.035535 1.880790849211783e-38 1700951363
-0.852051 -2.659272 -11.279249 1.880790849211783e-38 1700951363
-0.853825 -2.595296 -11.302726 1.880790849211783e-38 1700951363
-0.893981 -1.960440 -11.834299 1.880790849211783e-38 1700951363
-0.916262 -1.902383 -12.129251 1.880790849211783e-38 1700951363
-0.862125 -2.510565 -11.412599 1.880790849211783e-38 1700951363
-0.877485 -2.469571 -11.615936 1.880790849211783e-38 1700951363
-0.973182 -1.862962 -12.385323 1.880790849211783e-38 1700951363
-0.976094 -1.787028 -12.422380 1.880790849211783e-38 1700951363
-0.981695 -1.728115 -12.493666 1.880790849211783e-38 1700951363
-0.984818 -1.661655 -12.533411 1.880790849211783e-38 1700951363
-0.906133 -2.322248 -11.532021 1.880790849211783e-38 1700951363
-0.936852 -2.276291 -11.922964 1.880790849211783e-38 1700951363
-0.916705 -3.447351 -11.666566 1.880790849211783e-38 1700951363
-0.904806 -3.315241 -11.515126 1.880790849211783e-38 1700951363
-0.892179 -3.157223 -11.354429 1.880790849211783e-38 1700951363
-0.873690 -2.991476 -11.119122 1.880790849211783e-38 1700951363
-0.875548 -2.883602 -11.142780 1.880790849211783e-38 1700951363
-0.887736 -2.789382 -11.297892 1.880790849211783e-38 1700951363
-0.929498 -2.163827 -11.829375 1.880790849211783e-38 1700951363
-0.945834 -2.093256 -12.037276 1.880790849211783e-38 1700951363
-0.876074 -2.629285 -11.149469 1.880790849211783e-38 1700951363
-0.885955 -2.589581 -11.275219 1.880790849211783e-38 1700951363
-0.943893 -1.990437 -12.012583 1.880790849211783e-38 1700951363
-0.941526 -1.879796 -11.982452 1.880790849211783e-38 1700951363
-0.901730 -2.525096 -11.475986 1.880790849211783e-38 1700951363
-0.919612 -2.488778 -11.703558 1.880790849211783e-38 1700951363
-1.008889 -1.859941 -12.362249 1.880790849211783e-38 1700951363
-1.022945 -1.803590 -12.534483 1.880790849211783e-38 1700951363
-1.031757 -1.749117 -12.642451 1.880790849211783e-38 1700951363
-1.027382 -1.669407 -12.588843 1.880790849211783e-38 1700951363
-0.947912 -2.339537 -11.615072 1.880790849211783e-38 1700951363
-0.968886 -2.267123 -11.872075 1.880790849211783e-38 1700951363
-0.952322 -3.448936 -11.669110 1.880790849211783e-38 1700951363
-0.911538 -3.216474 -11.169374 1.880790849211783e-38 1700951363
-0.923591 -3.147592 -11.317060 1.880790849211783e-38 1700951363
-0.916113 -3.020806 -11.225428 1.880790849211783e-38 1700951363
-0.900070 -2.854807 -11.028846 1.880790849211783e-38 1700951363
-0.912055 -2.759882 -11.175710 1.880790849211783e-38 1700951363
-0.974236 -2.184155 -11.937624 1.880790849211783e-38 1700951363
-0.979659 -2.087988 -12.004085 1.880790849211783e-38 1700951363
-0.915338 -2.645597 -11.215934 1.880790849211783e-38 1700951363
-0.934314 -2.630002 -11.448448 1.880790849211783e-38 1700951363
-0.974818 -1.979678 -11.944764 1.880790849211783e-38 1700951363
-0.993674 -1.910590 -12.175803 1.880790849211783e-38 1700951363
-0.941063 -2.537848 -11.531156 1.880790849211783e-38 1700951363
-0.958944 -2.499312 -11.750257 1.880790849211783e-38 1700951363
-1.056646 -1.878567 -12.482919 1.880790849211783e-38 1700951363
-1.067381 -1.814874 -12.609740 1.880790849211783e-38 1700951363
-1.081775 -1.768561 -12.779782 1.880790849211783e-38 1700951363
-1.068316 -1.674062 -12.620786 1.880790849211783e-38 1700951363
-0.998016 -2.375423 -11.790276 1.880790849211783e-38 1700951363
-1.013287 -2.286529 -11.970694 1.880790849211783e-38 1700951363
-0.982522 -3.431509 -11.607239 1.880790849211783e-38 1700951363
-0.970165 -3.301356 -11.461255 1.880790849211783e-38 1700951363
-0.968886 -3.184293 -11.446147 1.880790849211783e-38 1700951363
-0.964978 -3.068547 -11.399974 1.880790849211783e-38 1700951363
-0.949581 -2.904520 -11.218086 1.880790849211783e-38 1700951363
-0.939131 -2.740546 -11.094631 1.880790849211783e-38 1700951363
-1.003756 -2.170147 -11.858089 1.880790849211783e-38 1700951363
-1.015854 -2.087977 -12.001010 1.880790849211783e-38 1700951363
-0.951739 -2.652784 -11.243581 1.880790849211783e-38 1700951363
-0.966144 -2.622690 -11.413756 1.880790849211783e-38 1700951363
-1.026990 -2.011308 -12.132570 1.880790849211783e-38 1700951363
-1.035726 -1.920483 -12.235780 1.880790849211783e-38 1700951363
-0.980063 -2.548839 -11.578191 1.880790849211783e-38 1700951363
-0.995183 -2.501333 -11.756811 1.880790849211783e-38 1700951363
-1.101441 -1.890844 -12.561234 1.880790849211783e-38 1700951363
-1.086367 -1.783614 -12.389326 1.880790849211783e-38 1700951363
-1.106897 -1.747381 -12.623452 1.880790849211783e-38 1700951363
-1.124503 -1.701492 -12.824244 1.880790849211783e-38 1700951363
-1.013019 -2.328191 -11.552839 1.880790849211783e-38 1700951363
-1.036389 -2.258210 -11.819362 1.880790849211783e-38 1700951363
-1.023411 -3.451360 -11.671353 1.880790849211783e-38 1700951363
-1.002205 -3.293068 -11.429512 1.880790849211783e-38 1700951363
-1.014446 -3.219337 -11.569107 1.880790849211783e-38 1700951363
-0.990081 -3.040069 -11.291244 1.880790849211783e-38 1700951363
-0.965501 -2.851624 -11.010924 1.880790849211783e-38 1700951363
-0.988143 -2.784377 -11.269144 1.880790849211783e-38 1700951363
-1.054149 -2.200697 -12.021894 1.880790849211783e-38 1700951363
-1.057152 -2.098114 -12.056141 1.880790849211783e-38 1700951363
-1.003330 -2.700379 -11.442336 1.880790849211783e-38 1700951363
-0.999053 -2.618730 -11.393560 1.880790849211783e-38 1700951363
-1.061454 -2.007293 -12.105206 1.880790849211783e-38 1700951363
-1.085461 -1.943465 -12.378985 1.880790849211783e-38 1700951363
-1.014306 -2.547151 -11.567517 1.880790849211783e-38 1700951363
-1.031481 -2.503382 -11.763381 1.880790849211783e-38 1700951363
-1.134935 -1.883571 -12.509552 1.880790849211783e-38 1700951363
-1.151877 -1.828297 -12.696287 1.880790849211783e-38 1700951363
-1.153426 -1.760299 -12.713356 1.880790849211783e-38 1700951363
-1.153649 -1.687560 -12.715819 1.880790849211783e-38 1700951363
-1.053752 -2.341294 -11.614733 1.880790849211783e-38 1700951363
-1.084661 -2.284818 -11.955411 1.880790849211783e-38 1700951363
-1.066925 -3.478489 -11.759929 1.880790849211783e-38 1700951363
-1.037481 -3.295645 -11.435380 1.880790849211783e-38 1700951363
-1.037504 -3.183054 -11.435643 1.880790849211783e-38 1700951363
-1.022204 -3.034357 -11.266996 1.880790849211783e-38 1700951363
-1.005044 -2.869729 -11.077852 1.880790849211783e-38 1700951363
-1.030847 -2.808140 -11.362262 1.880790849211783e-38 1700951363
-1.090978 -2.201866 -12.025044 1.880790849211783e-38 1700951363
-1.099990 -2.110557 -12.124380 1.880790849211783e-38 1700951363
-1.038305 -2.701608 -11.444464 1.880790849211783e-38 1700951363
-1.036799 -2.627323 -11.427872 1.880790849211783e-38 1700951363
-1.100977 -2.012817 -12.135255 1.880790849211783e-38 1700951363
-1.128788 -1.953851 -12.441794 1.880790849211783e-38 1700951363
-1.049923 -2.548940 -11.572528 1.880790849211783e-38 1700951363
-1.075201 -2.522737 -11.851142 1.880790849211783e-38 1700951363
-1.182151 -1.898819 -12.607308 1.880790849211783e-38 1700951363
-1.197194 -1.839097 -12.767737 1.880790849211783e-38 1700951363
-1.199058 -1.771073 -12.787610 1.880790849211783e-38 1700951363
-1.095838 -2.356476 -11.686798 1.880790849211783e-38 1700951363
-1.148104 -2.340660 -12.244200 1.880790849211783e-38 1700951363
-1.060785 -3.261275 -11.312973 1.880790849211783e-38 1700951363
-1.062899 -3.156061 -11.335515 1.880790849211783e-38 1700951363
-1.063356 -3.054973 -11.340390 1.880790849211783e-38 1700951363
-1.043441 -2.883521 -11.127996 1.880790849211783e-38 1700951363
-1.069800 -2.820505 -11.409117 1.880790849211783e-38 1700951363
-1.149390 -2.245132 -12.257921 1.880790849211783e-38 1700951363
-1.146559 -2.129140 -12.227727 1.880790849211783e-38 1700951363
-1.067382 -2.687924 -11.383328 1.880790849211783e-38 1700951363
-1.074501 -2.635268 -11.459245 1.880790849211783e-38 1700951363
-1.136944 -2.011707 -12.125187 1.880790849211783e-38 1700951363
-1.181508 -1.979315 -12.600441 1.880790849211783e-38 1700951363
-1.100151 -2.584960 -11.732796 1.880790849211783e-38 1700951363
-1.103273 -2.505329 -11.766092 1.880790849211783e-38 1700951363
-1.224748 -1.905944 -12.650979 1.880790849211783e-38 1700951363
-1.233009 -1.835098 -12.736310 1.880790849211783e-38 1700951363
-1.239318 -1.773503 -12.801477 1.880790849211783e-38 1700951363
-1.146441 -2.388478 -11.842107 1.880790849211783e-38 1700951363
-1.177051 -2.324906 -12.158294 1.880790849211783e-38 1700951363
-1.117383 -3.328243 -11.541959 1.880790849211783e-38 1700951363
-1.110441 -3.194492 -11.470249 1.880790849211783e-38 1700951363
-1.097518 -3.054875 -11.336766 1.880790849211783e-38 1700951363
-1.086098 -2.907886 -11.218800 1.880790849211783e-38 1700951363
-1.120908 -2.863169 -11.578368 1.880790849211783e-38 1700951363
-1.180149 -2.233387 -12.190292 1.880790849211783e-38 1700951363
-1.191002 -2.142759 -12.302405 1.880790849211783e-38 1700951363
-1.104690 -2.695195 -11.410840 1.880790849211783e-38 1700951363
-1.105501 -2.626818 -11.419218 1.880790849211783e-38 1700951363
-1.193226 -2.045509 -12.325377 1.880790849211783e-38 1700951363
-1.211082 -1.965645 -12.509818 1.880790849211783e-38 1700951363
-1.132840 -2.578832 -11.701623 1.880790849211783e-38 1700951363
-1.151769 -2.533962 -11.897145 1.880790849211783e-38 1700951363
-1.260527 -1.902366 -12.623490 1.880790849211783e-38 1700951363
-1.288558 -1.859839 -12.904200 1.880790849211783e-38 1700951363
-1.287227 -1.786418 -12.890874 1.880790849211783e-38 1700951363
-1.180543 -2.385230 -11.822493 1.880790849211783e-38 1700951363
-1.225756 -2.347970 -12.275271 1.880790849211783e-38 1700951363
-1.150085 -3.322167 -11.517474 1.880790849211783e-38 1700951363
-1.132802 -3.160378 -11.344392 1.880790849211783e-38 1700951363
-1.120095 -3.023535 -11.217139 1.880790849211783e-38 1700951363
-1.115760 -2.897061 -11.173725 1.880790849211783e-38 1700951363
-1.153744 -2.858019 -11.554113 1.880790849211783e-38 1700951363
-1.215776 -2.231307 -12.175329 1.880790849211783e-38 1700951363
-1.231492 -2.148675 -12.332717 1.880790849211783e-38 1700951363
-1.169930 -2.768141 -11.716204 1.880790849211783e-38 1700951363
-1.142747 -2.633297 -11.443986 1.880790849211783e-38 1700951363
-1.234985 -2.053142 -12.367702 1.880790849211783e-38 1700951363
-1.234420 -1.943001 -12.362040 1.880790849211783e-38 1700951363
-1.168506 -2.579669 -11.701945 1.880790849211783e-38 1700951363
-1.186808 -2.532176 -11.885233 1.880790849211783e-38 1700951363
-1.232905 -2.418009 -11.981300 1.880790849211783e-38 1700951363
-1.253147 -2.330079 -12.178009 1.880790849211783e-38 1700951363
-1.185863 -3.211438 -11.524151 1.880790849211783e-38 1700951363
-1.153809 -3.023250 -11.212653 1.880790849211783e-38 1700951363
-1.163125 -2.931522 -11.303180 1.880790849211783e-38 1700951363
-1.176127 -2.828068 -11.429537 1.880790849211783e-38 1700951363
-1.245562 -2.218968 -12.104298 1.880790849211783e-38 1700951363
-1.275312 -2.159909 -12.393408 1.880790849211783e-38 1700951363
-1.201835 -2.760282 -11.679366 1.880790849211783e-38 1700951363
-1.194956 -2.672892 -11.612510 1.880790849211783e-38 1700951363
-1.268760 -2.047464 -12.329731 1.880790849211783e-38 1700951363
-1.292074 -1.974138 -12.556303 1.880790849211783e-38 1700951363
-1.214530 -2.602682 -11.802729 1.880790849211783e-38 1700951363
-1.212362 -2.510878 -11.781664 1.880790849211783e-38 1700951363
-1.276901 -2.432997 -12.051770 1.880790849211783e-38 1700951363
-1.297520 -2.343899 -12.246381 1.880790849211783e-38 1700951363
-1.214682 -3.195829 -11.464528 1.880790849211783e-38 1700951363
-1.198810 -3.051731 -11.314719 1.880790849211783e-38 1700951363
-1.195912 -2.928345 -11.287375 1.880790849211783e-38 1700951363
-1.225157 -2.862091 -11.563396 1.880790849211783e-38 1700951363
-1.302869 -2.254980 -12.296866 1.880790849211783e-38 1700951363
-1.321233 -2.173975 -12.470185 1.880790849211783e-38 1700951363
-1.228004 -2.740086 -11.590261 1.880790849211783e-38 1700951363
-1.242480 -2.700069 -11.726890 1.880790849211783e-38 1700951363
-1.238956 -2.579437 -11.693634 1.880790849211783e-38 1700951363
-1.262458 -2.540190 -11.915453 1.880790849211783e-38 1700951363
-1.308491 -2.424192 -12.004264 1.880790849211783e-38 1700951363
-1.349390 -2.370141 -12.379476 1.880790849211783e-38 1700951363
-1.241127 -3.175041 -11.386262 1.880790849211783e-38 1700951363
-1.225459 -3.033242 -11.242521 1.880790849211783e-38 1700951363
-1.234655 -2.939548 -11.326885 1.880790849211783e-38 1700951363
-1.274525 -2.895024 -11.692660 1.880790849211783e-38 1700951363
-1.272857 -2.761570 -11.677353 1.880790849211783e-38 1700951363
-1.285973 -2.717249 -11.797681 1.880790849211783e-38 1700951363
-1.306625 -2.645038 -11.987144 1.880790849211783e-38 1700951363
-1.304130 -2.551422 -11.964256 1.880790849211783e-38 1700951363
-1.287738 -3.205605 -11.492040 1.880790849211783e-38 1700951363
-1.265210 -3.047336 -11.290998 1.880790849211783e-38 1700951363
-1.266618 -2.934473 -11.303564 1.880790849211783e-38 1700951363
-1.312533 -2.901104 -11.713312 1.880790849211783e-38 1700951363
-1.298073 -2.740470 -11.584270 1.880790849211783e-38 1700951363
-1.324674 -2.723680 -11.821662 1.880790849211783e-38 1700951363
-1.324952 -2.609941 -11.824146 1.880790849211783e-38 1700951363
-1.360321 -2.589718 -12.139789 1.880790849211783e-38 1700951363
-1.319977 -3.199750 -11.467122 1.880790849211783e-38 1700951363
-1.304812 -3.060363 -11.335380 1.880790849211783e-38 1700951363
-1.323904 -2.986813 -11.501236 1.880790849211783e-38 1700951363
-1.345989 -2.897089 -11.693096 1.880790849211783e-38 1700951363
-1.356907 -2.789610 -11.787950 1.880790849211783e-38 1700951363
-1.364863 -2.732772 -11.857061 1.880790849211783e-38 1700951363
-1.356146 -3.203508 -11.476551 1.880790849211783e-38 1700951363
-1.342268 -3.067846 -11.359102 1.880790849211783e-38 1700951363
-1.355546 -2.980131 -11.471467 1.880790849211783e-38 1700951363
-1.378034 -2.890345 -11.661775 1.880790849211783e-38 1700951363
-1.394631 -3.108210 -11.504397 1.880790849211783e-38 1700951363
-1.400086 -3.001459 -11.549396 1.880790849211783e-38 1700951363
1.382812 -3.357037 -11.311731 1.880790849211783e-38 1700951363
1.388384 -3.284024 -11.357311 1.880790849211783e-38 1700951363
1.416913 -3.236932 -11.590686 1.880790849211783e-38 1700951363
1.465737 -2.486342 -12.297910 1.880790849211783e-38 1700951363
1.472110 -2.367475 -12.351378 1.880790849211783e-38 1700951363
1.352922 -3.367572 -11.351364 1.880790849211783e-38 1700951363
1.346833 -3.266342 -11.300271 1.880790849211783e-38 1700951363
1.367564 -3.203237 -11.474211 1.880790849211783e-38 1700951363
1.387671 -3.144874 -11.642920 1.880790849211783e-38 1700951363
1.387716 -3.025129 -11.643291 1.880790849211783e-38 1700951363
1.394844 -2.900933 -11.703096 1.880790849211783e-38 1700951363
1.478295 -2.277842 -12.403276 1.880790849211783e-38 1700951363
1.490902 -2.183961 -12.509053 1.880790849211783e-38 1700951363
1.414267 -2.809418 -11.866060 1.880790849211783e-38 1700951363
1.417942 -2.743246 -11.896900 1.880790849211783e-38 1700951363
1.516718 -2.116989 -12.725656 1.880790849211783e-38 1700951363
1.518939 -2.007276 -12.744292 1.880790849211783e-38 1700951363
1.457051 -2.700626 -12.225035 1.880790849211783e-38 1700951363
1.447831 -2.593510 -12.147677 1.880790849211783e-38 1700951363
1.417941 -2.467717 -12.210120 1.880790849211783e-38 1700951363
1.448326 -2.389703 -12.471769 1.880790849211783e-38 1700951363
1.314910 -3.357937 -11.322903 1.880790849211783e-38 1700951363
1.309536 -3.258350 -11.276623 1.880790849211783e-38 1700951363
1.342212 -3.225484 -11.558002 1.880790849211783e-38 1700951363
1.341173 -3.118414 -11.549053 1.880790849211783e-38 1700951363
1.359278 -3.040073 -11.704962 1.880790849211783e-38 1700951363
1.381965 -2.948775 -11.900326 1.880790849211783e-38 1700951363
1.458781 -2.306135 -12.561797 1.880790849211783e-38 1700951363
1.461206 -2.196037 -12.582685 1.880790849211783e-38 1700951363
1.379730 -2.811975 -11.881079 1.880790849211783e-38 1700951363
1.376293 -2.731803 -11.851478 1.880790849211783e-38 1700951363
1.474660 -2.111728 -12.698538 1.880790849211783e-38 1700951363
1.474842 -1.999606 -12.700103 1.880790849211783e-38 1700951363
1.413394 -2.687727 -12.170963 1.880790849211783e-38 1700951363
1.417179 -2.604516 -12.203559 1.880790849211783e-38 1700951363
1.365388 -2.439628 -12.075309 1.880790849211783e-38 1700951363
1.396572 -2.365763 -12.351093 1.880790849211783e-38 1700951363
1.298468 -3.404379 -11.483474 1.880790849211783e-38 1700951363
1.278860 -3.266882 -11.310060 1.880790849211783e-38 1700951363
1.294845 -3.194641 -11.451436 1.880790849211783e-38 1700951363
1.293304 -3.087307 -11.437804 1.880790849211783e-38 1700951363
1.302011 -2.989651 -11.514805 1.880790849211783e-38 1700951363
1.345319 -2.947135 -11.897820 1.880790849211783e-38 1700951363
1.415478 -2.297355 -12.518297 1.880790849211783e-38 1700951363
1.404547 -2.167179 -12.421628 1.880790849211783e-38 1700951363
1.347126 -2.818745 -11.913799 1.880790849211783e-38 1700951363
1.339881 -2.730455 -11.849725 1.880790849211783e-38 1700951363
1.401230 -2.060087 -12.392284 1.880790849211783e-38 1700951363
1.420155 -1.976809 -12.559652 1.880790849211783e-38 1700951363
1.346570 -2.628942 -11.908883 1.880790849211783e-38 1700951363
1.378959 -2.601860 -12.195330 1.880790849211783e-38 1700951363
1.407175 -1.929534 -12.790267 1.880790849211783e-38 1700951363
1.318245 -2.419952 -11.981953 1.880790849211783e-38 1700951363
1.355767 -2.359589 -12.323005 1.880790849211783e-38 1700951363
1.259345 -3.392304 -11.446594 1.880790849211783e-38 1700951363
1.207553 -3.169275 -10.975835 1.880790849211783e-38 1700951363
1.247950 -3.163331 -11.343019 1.880790849211783e-38 1700951363
1.268718 -3.111628 -11.531784 1.880790849211783e-38 1700951363
1.264869 -2.983973 -11.496800 1.880790849211783e-38 1700951363
1.288604 -2.900262 -11.712529 1.880790849211783e-38 1700951363
1.365608 -2.277163 -12.412445 1.880790849211783e-38 1700951363
1.365071 -2.163997 -12.407564 1.880790849211783e-38 1700951363
1.309685 -2.815516 -11.904151 1.880790849211783e-38 1700951363
1.295652 -2.712691 -11.776594 1.880790849211783e-38 1700951363
1.362890 -2.058639 -12.387741 1.880790849211783e-38 1700951363
1.396933 -1.997782 -12.697172 1.880790849211783e-38 1700951363
1.319847 -2.647397 -11.996513 1.880790849211783e-38 1700951363
1.321846 -2.562458 -12.014684 1.880790849211783e-38 1700951363
1.354367 -1.909476 -12.661452 1.880790849211783e-38 1700951363
1.270239 -2.397563 -11.874979 1.880790849211783e-38 1700951363
1.304480 -2.334330 -12.195081 1.880790849211783e-38 1700951363
1.217268 -3.371397 -11.379768 1.880790849211783e-38 1700951363
1.202184 -3.244133 -11.238757 1.880790849211783e-38 1700951363
1.203610 -3.136946 -11.252090 1.880790849211783e-38 1700951363
1.221232 -3.079600 -11.416822 1.880790849211783e-38 1700951363
1.223706 -2.968246 -11.439951 1.880790849211783e-38 1700951363
1.251855 -2.896982 -11.703113 1.880790849211783e-38 1700951363
1.334519 -2.288055 -12.475899 1.880790849211783e-38 1700951363
1.320115 -2.151727 -12.341247 1.880790849211783e-38 1700951363
1.254817 -2.773607 -11.730799 1.880790849211783e-38 1700951363
1.267954 -2.729538 -11.853611 1.880790849211783e-38 1700951363
1.306280 -2.028754 -12.211904 1.880790849211783e-38 1700951363
1.336355 -1.965024 -12.493063 1.880790849211783e-38 1700951363
1.277907 -2.635533 -11.946664 1.880790849211783e-38 1700951363
1.283617 -2.558497 -12.000040 1.880790849211783e-38 1700951363
1.320004 -1.915029 -12.702312 1.880790849211783e-38 1700951363
1.238652 -2.405778 -11.919458 1.880790849211783e-38 1700951363
1.278155 -2.353587 -12.299594 1.880790849211783e-38 1700951363
1.162477 -3.313067 -11.186440 1.880790849211783e-38 1700951363
1.163202 -3.230016 -11.193412 1.880790849211783e-38 1700951363
1.188135 -3.186463 -11.433339 1.880790849211783e-38 1700951363
1.171204 -3.039142 -11.270419 1.880790849211783e-38 1700951363
1.190240 -2.970843 -11.453601 1.880790849211783e-38 1700951363
1.213709 -2.890202 -11.679435 1.880790849211783e-38 1700951363
1.279431 -2.257255 -12.311872 1.880790849211783e-38 1700951363
1.281376 -2.149186 -12.330594 1.880790849211783e-38 1700951363
1.203696 -2.737811 -11.583083 1.880790849211783e-38 1700951363
1.231551 -2.728101 -11.851135 1.880790849211783e-38 1700951363
1.274137 -2.036252 -12.260938 1.880790849211783e-38 1700951363
1.286256 -1.946236 -12.377551 1.880790849211783e-38 1700951363
1.217241 -2.583257 -11.713425 1.880790849211783e-38 1700951363
1.243760 -2.550986 -11.968616 1.880790849211783e-38 1700951363
1.269093 -1.896209 -12.581366 1.880790849211783e-38 1700951363
1.272898 -1.818931 -12.619088 1.880790849211783e-38 1700951363
1.205129 -2.410643 -11.947251 1.880790849211783e-38 1700951363
1.213730 -2.301770 -12.032521 1.880790849211783e-38 1700951363
1.136586 -3.336116 -11.267742 1.880790849211783e-38 1700951363
1.137714 -3.253686 -11.278922 1.880790849211783e-38 1700951363
1.113119 -3.074523 -11.035096 1.880790849211783e-38 1700951363
1.135443 -3.034425 -11.256405 1.880790849211783e-38 1700951363
1.150989 -2.958756 -11.410526 1.880790849211783e-38 1700951363
1.164888 -2.856872 -11.548313 1.880790849211783e-38 1700951363
1.238157 -2.249741 -12.274674 1.880790849211783e-38 1700951363
1.230716 -2.125926 -12.200914 1.880790849211783e-38 1700951363
1.171632 -2.744548 -11.615175 1.880790849211783e-38 1700951363
1.170738 -2.670918 -11.606312 1.880790849211783e-38 1700951363
1.249044 -2.055824 -12.382610 1.880790849211783e-38 1700951363
1.260289 -1.963954 -12.494088 1.880790849211783e-38 1700951363
1.205213 -2.634194 -11.948082 1.880790849211783e-38 1700951363
1.201724 -2.538453 -11.913494 1.880790849211783e-38 1700951363
1.234835 -1.901898 -12.622892 1.880790849211783e-38 1700951363
1.234130 -1.817895 -12.615681 1.880790849211783e-38 1700951363
1.170632 -2.413822 -11.966590 1.880790849211783e-38 1700951363
1.192093 -2.330426 -12.185966 1.880790849211783e-38 1700951363
1.113271 -3.368409 -11.380223 1.880790849211783e-38 1700951363
1.103840 -3.254122 -11.283813 1.880790849211783e-38 1700951363
1.086344 -3.093063 -11.104967 1.880790849211783e-38 1700951363
1.093458 -3.012304 -11.177692 1.880790849211783e-38 1700951363
1.112574 -2.948168 -11.373100 1.880790849211783e-38 1700951363
1.128617 -2.853243 -11.537098 1.880790849211783e-38 1700951363
1.150040 -3.610048 -11.756086 1.880790849211783e-38 1700951363
1.198373 -2.244576 -12.250163 1.880790849211783e-38 1700951363
1.204998 -2.145664 -12.317883 1.880790849211783e-38 1700951363
1.129542 -2.727516 -11.546553 1.880790849211783e-38 1700951363
1.135406 -2.670161 -11.606500 1.880790849211783e-38 1700951363
1.189672 -2.018463 -12.161221 1.880790849211783e-38 1700951363
1.208477 -1.941264 -12.353447 1.880790849211783e-38 1700951363
1.143979 -2.577433 -11.694129 1.880790849211783e-38 1700951363
1.164324 -2.535267 -11.902106 1.880790849211783e-38 1700951363
1.190185 -1.891447 -12.557172 1.880790849211783e-38 1700951363
1.203181 -1.828689 -12.694281 1.880790849211783e-38 1700951363
1.191164 -1.740752 -12.567497 1.880790849211783e-38 1700951363
1.107436 -2.356158 -11.684114 1.880790849211783e-38 1700951363
1.143548 -2.306645 -12.065120 1.880790849211783e-38 1700951363
1.075256 -3.356890 -11.344599 1.880790849211783e-38 1700951363
1.062696 -3.232495 -11.212077 1.880790849211783e-38 1700951363
1.051039 -3.087744 -11.089090 1.880790849211783e-38 1700951363
1.059370 -3.011241 -11.176994 1.880790849211783e-38 1700951363
1.063781 -2.908552 -11.223535 1.880790849211783e-38 1700951363
1.080785 -2.819244 -11.402935 1.880790849211783e-38 1700951363
1.095958 -3.549728 -11.563012 1.880790849211783e-38 1700951363
1.146053 -2.214870 -12.091550 1.880790849211783e-38 1700951363
1.158943 -2.129310 -12.227546 1.880790849211783e-38 1700951363
1.105271 -2.753815 -11.661272 1.880790849211783e-38 1700951363
1.100858 -2.671274 -11.614713 1.880790849211783e-38 1700951363
1.141267 -1.997937 -12.041051 1.880790849211783e-38 1700951363
1.168111 -1.936118 -12.324275 1.880790849211783e-38 1700951363
1.106824 -2.573056 -11.677660 1.880790849211783e-38 1700951363
1.118228 -2.512357 -11.797978 1.880790849211783e-38 1700951363
1.142274 -1.874977 -12.451331 1.880790849211783e-38 1700951363
1.147629 -1.801593 -12.509700 1.880790849211783e-38 1700951363
1.139081 -1.719358 -12.416533 1.880790849211783e-38 1700951363
1.074424 -2.361064 -11.711736 1.880790849211783e-38 1700951363
1.100785 -2.293374 -11.999079 1.880790849211783e-38 1700951363
1.047934 -3.379132 -11.422977 1.880790849211783e-38 1700951363
1.037909 -3.260877 -11.313703 1.880790849211783e-38 1700951363
1.023165 -3.104662 -11.152985 1.880790849211783e-38 1700951363
1.019788 -2.994012 -11.116171 1.880790849211783e-38 1700951363
1.034979 -2.922821 -11.281765 1.880790849211783e-38 1700951363
1.057630 -2.849529 -11.528668 1.880790849211783e-38 1700951363
1.075281 -3.597239 -11.721072 1.880790849211783e-38 1700951363
1.106212 -2.208147 -12.058238 1.880790849211783e-38 1700951363
1.110514 -2.107400 -12.105131 1.880790849211783e-38 1700951363
1.047406 -2.695425 -11.417222 1.880790849211783e-38 1700951363
1.055594 -2.645639 -11.506484 1.880790849211783e-38 1700951363
1.108512 -2.004386 -12.083313 1.880790849211783e-38 1700951363
1.123022 -1.922570 -12.241477 1.880790849211783e-38 1700951363
1.063716 -2.554127 -11.595011 1.880790849211783e-38 1700951363
1.076835 -2.498884 -11.738013 1.880790849211783e-38 1700951363
1.088032 -1.846662 -12.266633 1.880790849211783e-38 1700951363
1.113171 -1.806912 -12.550052 1.880790849211783e-38 1700951363
1.102964 -1.721444 -12.434976 1.880790849211783e-38 1700951363
1.107887 -1.657355 -12.490475 1.880790849211783e-38 1700951363
1.044753 -2.373917 -11.778698 1.880790849211783e-38 1700951363
1.061645 -2.287028 -11.969135 1.880790849211783e-38 1700951363
1.021180 -3.404813 -11.512925 1.880790849211783e-38 1700951363
0.992993 -3.225826 -11.195138 1.880790849211783e-38 1700951363
0.985448 -3.091876 -11.110075 1.880790849211783e-38 1700951363
0.984375 -2.988302 -11.097987 1.880790849211783e-38 1700951363
0.999532 -2.918684 -11.268864 1.880790849211783e-38 1700951363
1.009011 -2.810962 -11.375729 1.880790849211783e-38 1700951363
1.043410 -3.609295 -11.763556 1.880790849211783e-38 1700951363
1.054891 -2.177294 -11.892992 1.880790849211783e-38 1700951363
1.075444 -2.110233 -12.124706 1.880790849211783e-38 1700951363
1.029186 -2.738582 -11.603182 1.880790849211783e-38 1700951363
1.011837 -2.622186 -11.407588 1.880790849211783e-38 1700951363
1.071056 -2.002500 -12.075232 1.880790849211783e-38 1700951363
1.091712 -1.932510 -12.308120 1.880790849211783e-38 1700951363
1.032643 -2.563814 -11.642159 1.880790849211783e-38 1700951363
1.027255 -2.464877 -11.581423 1.880790849211783e-38 1700951363
1.044491 -1.835169 -12.193499 1.880790849211783e-38 1700951363
1.057546 -1.777054 -12.345911 1.880790849211783e-38 1700951363
1.066293 -1.722797 -12.448026 1.880790849211783e-38 1700951363
1.074707 -1.664317 -12.546245 1.880790849211783e-38 1700951363
0.991141 -2.331382 -11.570690 1.880790849211783e-38 1700951363
0.999386 -2.228701 -11.666947 1.880790849211783e-38 1700951363
0.967625 -3.339829 -11.296159 1.880790849211783e-38 1700951363
0.970262 -3.262949 -11.326950 1.880790849211783e-38 1700951363
0.954685 -3.100807 -11.145100 1.880790849211783e-38 1700951363
0.951956 -2.991622 -11.113240 1.880790849211783e-38 1700951363
0.958322 -2.896864 -11.187559 1.880790849211783e-38 1700951363
0.968812 -2.793988 -11.310014 1.880790849211783e-38 1700951363
1.009147 -3.613664 -11.780892 1.880790849211783e-38 1700951363
1.022420 -2.184564 -11.935843 1.880790849211783e-38 1700951363
1.031652 -2.095570 -12.043625 1.880790849211783e-38 1700951363
0.979473 -2.698053 -11.434471 1.880790849211783e-38 1700951363
0.966142 -2.591913 -11.278853 1.880790849211783e-38 1700951363
1.016955 -1.968288 -11.872048 1.880790849211783e-38 1700951363
1.051439 -1.926742 -12.274611 1.880790849211783e-38 1700951363
0.989703 -2.543708 -11.553896 1.880790849211783e-38 1700951363
1.007744 -2.503186 -11.764511 1.880790849211783e-38 1700951363
0.999682 -1.820542 -12.099384 1.880790849211783e-38 1700951363
1.021163 -1.778541 -12.359378 1.880790849211783e-38 1700951363
1.019717 -1.707673 -12.341876 1.880790849211783e-38 1700951363
1.028240 -1.650472 -12.445030 1.880790849211783e-38 1700951363
0.955959 -2.330690 -11.570194 1.880790849211783e-38 1700951363
0.978235 -2.261148 -11.839809 1.880790849211783e-38 1700951363
0.936924 -3.351883 -11.339808 1.880790849211783e-38 1700951363
0.917122 -3.196802 -11.100144 1.880790849211783e-38 1700951363
0.933148 -3.141470 -11.294117 1.880790849211783e-38 1700951363
0.923352 -3.007631 -11.175546 1.880790849211783e-38 1700951363
0.923112 -2.892267 -11.172643 1.880790849211783e-38 1700951363
0.940507 -2.811348 -11.383174 1.880790849211783e-38 1700951363
0.965555 -3.583753 -11.686345 1.880790849211783e-38 1700951363
0.981425 -2.173501 -11.878414 1.880790849211783e-38 1700951363
0.974395 -2.051499 -11.793329 1.880790849211783e-38 1700951363
0.938307 -2.678988 -11.356554 1.880790849211783e-38 1700951363
0.942288 -2.620176 -11.404734 1.880790849211783e-38 1700951363
0.995353 -1.996786 -12.046995 1.880790849211783e-38 1700951363
0.998889 -1.897249 -12.089789 1.880790849211783e-38 1700951363
0.961788 -2.562179 -11.640745 1.880790849211783e-38 1700951363
0.966603 -2.488620 -11.699022 1.880790849211783e-38 1700951363
0.992617 -1.561592 -12.472147 1.880790849211783e-38 1700951363
0.961863 -1.818042 -12.085723 1.880790849211783e-38 1700951363
0.978706 -1.769183 -12.297358 1.880790849211783e-38 1700951363
0.973784 -1.692541 -12.235510 1.880790849211783e-38 1700951363
0.986392 -1.643293 -12.393927 1.880790849211783e-38 1700951363
0.902565 -2.283893 -11.340653 1.880790849211783e-38 1700951363
0.937069 -2.248067 -11.774193 1.880790849211783e-38 1700951363
0.905717 -3.363017 -11.380257 1.880790849211783e-38 1700951363
0.902358 -3.264519 -11.338051 1.880790849211783e-38 1700951363
0.885556 -3.094211 -11.126934 1.880790849211783e-38 1700951363
0.875943 -2.961317 -11.006148 1.880790849211783e-38 1700951363
0.879513 -2.860080 -11.051007 1.880790849211783e-38 1700951363
0.890173 -2.761717 -11.184954 1.880790849211783e-38 1700951363
0.924184 -3.560174 -11.612297 1.880790849211783e-38 1700951363
0.942881 -2.167264 -11.847221 1.880790849211783e-38 1700951363
0.945056 -2.065121 -11.874544 1.880790849211783e-38 1700951363
0.901085 -2.670197 -11.322061 1.880790849211783e-38 1700951363
0.907682 -2.619584 -11.404945 1.880790849211783e-38 1700951363
0.945720 -1.969105 -11.882895 1.880790849211783e-38 1700951363
0.962887 -1.898167 -12.098597 1.880790849211783e-38 1700951363
0.915208 -2.530473 -11.499509 1.880790849211783e-38 1700951363
0.929468 -2.483686 -11.678683 1.880790849211783e-38 1700951363
0.949151 -1.552034 -12.398728 1.880790849211783e-38 1700951363
0.923739 -1.814763 -12.066766 1.880790849211783e-38 1700951363
0.927289 -1.742269 -12.113137 1.880790849211783e-38 1700951363
0.940749 -1.699536 -12.288966 1.880790849211783e-38 1700951363
0.927796 -1.606563 -12.119761 1.880790849211783e-38 1700951363
0.874490 -2.300022 -11.423429 1.880790849211783e-38 1700951363
0.899325 -2.242509 -11.747849 1.880790849211783e-38 1700951363
0.872101 -3.365760 -11.392221 1.880790849211783e-38 1700951363
0.859799 -3.233086 -11.231524 1.880790849211783e-38 1700951363
0.849186 -3.084018 -11.092889 1.880790849211783e-38 1700951363
0.836690 -2.940044 -10.929657 1.880790849211783e-38 1700951363
0.839621 -2.837914 -10.967941 1.880790849211783e-38 1700951363
0.863307 -2.783875 -11.277347 1.880790849211783e-38 1700951363
0.899063 -3.599834 -11.744421 1.880790849211783e-38 1700951363
0.904408 -2.160724 -11.814254 1.880790849211783e-38 1700951363
0.905567 -2.056784 -11.829390 1.880790849211783e-38 1700951363
0.865346 -2.665307 -11.303985 1.880790849211783e-38 1700951363
0.868083 -2.603994 -11.339744 1.880790849211783e-38 1700951363
0.907458 -1.963868 -11.854088 1.880790849211783e-38 1700951363
0.907755 -1.859977 -11.857973 1.880790849211783e-38 1700951363
0.880154 -2.529418 -11.497420 1.880790849211783e-38 1700951363
0.881986 -2.449650 -11.521355 1.880790849211783e-38 1700951363
0.904410 -1.539529 -12.301620 1.880790849211783e-38 1700951363
0.921959 -1.505144 -12.540320 1.880790849211783e-38 1700951363
0.881813 -1.803451 -11.994266 1.880790849211783e-38 1700951363
0.901779 -1.763834 -12.265841 1.880790849211783e-38 1700951363
0.892930 -1.679311 -12.145474 1.880790849211783e-38 1700951363
0.901965 -1.625893 -12.268362 1.880790849211783e-38 1700951363
0.831854 -2.277619 -11.314723 1.880790849211783e-38 1700951363
0.856527 -2.223389 -11.650321 1.880790849211783e-38 1700951363
0.844595 -3.393300 -11.488035 1.880790849211783e-38 1700951363
0.817589 -3.200460 -11.120698 1.880790849211783e-38 1700951363
0.824263 -3.116284 -11.211483 1.880790849211783e-38 1700951363
0.814436 -2.979222 -11.077809 1.880790849211783e-38 1700951363
0.804381 -2.830313 -10.941045 1.880790849211783e-38 1700951363
0.817179 -2.743207 -11.115119 1.880790849211783e-38 1700951363
0.853440 -3.557316 -11.608333 1.880790849211783e-38 1700951363
0.855059 -2.126611 -11.630364 1.880790849211783e-38 1700951363
0.861819 -2.037704 -11.722305 1.880790849211783e-38 1700951363
0.827900 -2.654559 -11.260950 1.880790849211783e-38 1700951363
0.820712 -2.562868 -11.163172 1.880790849211783e-38 1700951363
0.874597 -1.970384 -11.896107 1.880790849211783e-38 1700951363
0.877794 -1.872357 -11.939598 1.880790849211783e-38 1700951363
0.820327 -2.454176 -11.157937 1.880790849211783e-38 1700951363
0.840453 -2.430036 -11.431692 1.880790849211783e-38 1700951363
0.871485 -1.546951 -12.363610 1.880790849211783e-38 1700951363
0.868250 -1.478103 -12.317703 1.880790849211783e-38 1700951363
0.847381 -1.807175 -12.021643 1.880790849211783e-38 1700951363
0.851104 -1.735937 -12.074465 1.880790849211783e-38 1700951363
0.852073 -1.671031 -12.088210 1.880790849211783e-38 1700951363
0.861574 -1.619529 -12.222993 1.880790849211783e-38 1700951363
0.801967 -2.289733 -11.377371 1.880790849211783e-38 1700951363
0.821569 -2.223887 -11.655459 1.880790849211783e-38 1700951363
0.799061 -3.347704 -11.336132 1.880790849211783e-38 1700951363
0.785397 -3.205979 -11.142295 1.880790849211783e-38 1700951363
0.780544 -3.077244 -11.073435 1.880790849211783e-38 1700951363
0.777472 -2.965681 -11.029853 1.880790849211783e-38 1700951363
0.778432 -2.856193 -11.043482 1.880790849211783e-38 1700951363
0.795181 -2.783567 -11.281100 1.880790849211783e-38 1700951363
0.824879 -3.585366 -11.702409 1.880790849211783e-38 1700951363
0.819599 -2.125628 -11.627513 1.880790849211783e-38 1700951363
0.837391 -2.064653 -11.879912 1.880790849211783e-38 1700951363
0.782623 -2.616743 -11.102940 1.880790849211783e-38 1700951363
0.792231 -2.579771 -11.239238 1.880790849211783e-38 1700951363
0.830518 -1.951128 -11.782411 1.880790849211783e-38 1700951363
0.832445 -1.851592 -11.809752 1.880790849211783e-38 1700951363
0.797619 -2.488333 -11.315685 1.880790849211783e-38 1700951363
0.807458 -2.434519 -11.455266 1.880790849211783e-38 1700951363
0.818955 -1.518694 -12.140292 1.880790849211783e-38 1700951363
0.828622 -1.473705 -12.283604 1.880790849211783e-38 1700951363
0.812965 -1.811287 -12.051500 1.880790849211783e-38 1700951363
0.812495 -1.731274 -12.044533 1.880790849211783e-38 1700951363
0.814266 -1.668274 -12.070781 1.880790849211783e-38 1700951363
0.822135 -1.614482 -12.187441 1.880790849211783e-38 1700951363
0.768249 -2.291521 -11.388627 1.880790849211783e-38 1700951363
0.781015 -2.208621 -11.577858 1.880790849211783e-38 1700951363
0.769513 -3.368039 -11.407364 1.880790849211783e-38 1700951363
0.753941 -3.215157 -11.176517 1.880790849211783e-38 1700951363
0.754868 -3.109064 -11.190266 1.880790849211783e-38 1700951363
0.750757 -2.991803 -11.129320 1.880790849211783e-38 1700951363
0.733919 -2.813251 -10.879710 1.880790849211783e-38 1700951363
0.754025 -2.757494 -11.177759 1.880790849211783e-38 1700951363
0.788205 -3.713180 -11.684454 1.880790849211783e-38 1700951363
0.798320 -3.625052 -11.834400 1.880790849211783e-38 1700951363
0.785105 -2.127193 -11.638496 1.880790849211783e-38 1700951363
0.784863 -2.021653 -11.634915 1.880790849211783e-38 1700951363
0.744404 -2.600222 -11.035136 1.880790849211783e-38 1700951363
0.759630 -2.584195 -11.260857 1.880790849211783e-38 1700951363
0.782617 -1.920791 -11.601623 1.880790849211783e-38 1700951363
0.794713 -1.846690 -11.780935 1.880790849211783e-38 1700951363
0.762497 -2.485104 -11.303353 1.880790849211783e-38 1700951363
0.766680 -2.414909 -11.365360 1.880790849211783e-38 1700951363
0.780726 -1.515567 -12.117711 1.880790849211783e-38 1700951363
0.786520 -1.464301 -12.207653 1.880790849211783e-38 1700951363
0.779806 -1.379902 -12.103436 1.880790849211783e-38 1700951363
0.761619 -1.776313 -11.821154 1.880790849211783e-38 1700951363
0.773270 -1.724815 -12.001984 1.880790849211783e-38 1700951363
0.767675 -1.646436 -11.915142 1.880790849211783e-38 1700951363
0.785135 -1.613990 -12.186147 1.880790849211783e-38 1700951363
0.724826 -2.263195 -11.250087 1.880790849211783e-38 1700951363
0.747843 -2.213805 -11.607343 1.880790849211783e-38 1700951363
0.738179 -3.382121 -11.457336 1.880790849211783e-38 1700951363
0.726905 -3.244957 -11.282352 1.880790849211783e-38 1700951363
0.720389 -3.105932 -11.181217 1.880790849211783e-38 1700951363
0.707344 -2.950740 -10.978751 1.880790849211783e-38 1700951363
0.705654 -2.831514 -10.952517 1.880790849211783e-38 1700951363
0.711674 -2.724437 -11.045954 1.880790849211783e-38 1700951363
0.759173 -3.743814 -11.783196 1.880790849211783e-38 1700951363
0.761402 -3.619241 -11.817780 1.880790849211783e-38 1700951363
0.732790 -2.078382 -11.373698 1.880790849211783e-38 1700951363
0.753620 -2.032037 -11.697003 1.880790849211783e-38 1700951363
0.715819 -2.617410 -11.110289 1.880790849211783e-38 1700951363
0.718814 -2.559802 -11.156781 1.880790849211783e-38 1700951363
0.745088 -1.914277 -11.564578 1.880790849211783e-38 1700951363
0.758889 -1.845986 -11.778786 1.880790849211783e-38 1700951363
0.716706 -2.445198 -11.124056 1.880790849211783e-38 1700951363
0.726897 -2.396770 -11.282236 1.880790849211783e-38 1700951363
0.746054 -1.519387 -12.150556 1.880790849211783e-38 1700951363
0.744567 -1.454272 -12.126342 1.880790849211783e-38 1700951363
0.747162 -1.387070 -12.168614 1.880790849211783e-38 1700951363
0.719705 -1.760994 -11.721428 1.880790849211783e-38 1700951363
0.742860 -1.738362 -12.098550 1.880790849211783e-38 1700951363
0.729428 -1.641240 -11.879790 1.880790849211783e-38 1700951363
0.734549 -1.584160 -11.963190 1.880790849211783e-38 1700951363
0.691019 -2.263601 -11.254237 1.880790849211783e-38 1700951363
0.712294 -2.212123 -11.600724 1.880790849211783e-38 1700951363
0.708386 -3.405016 -11.537086 1.880790849211783e-38 1700951363
0.691852 -3.240159 -11.267809 1.880790849211783e-38 1700951363
0.683053 -3.089591 -11.124499 1.880790849211783e-38 1700951363
0.676650 -2.961323 -11.020218 1.880790849211783e-38 1700951363
0.674496 -2.839406 -10.985129 1.880790849211783e-38 1700951363
0.674915 -2.710605 -10.991962 1.880790849211783e-38 1700951363
0.722672 -3.738835 -11.769756 1.880790849211783e-38 1700951363
0.721158 -3.596298 -11.745092 1.880790849211783e-38 1700951363
0.703738 -2.094008 -11.461384 1.880790849211783e-38 1700951363
0.716709 -2.027420 -11.672639 1.880790849211783e-38 1700951363
0.677819 -2.600184 -11.039266 1.880790849211783e-38 1700951363
0.674612 -2.520374 -10.987020 1.880790849211783e-38 1700951363
0.710905 -1.916153 -11.578110 1.880790849211783e-38 1700951363
0.713763 -1.821486 -11.624660 1.880790849211783e-38 1700951363
0.696035 -2.491297 -11.335925 1.880790849211783e-38 1700951363
0.694929 -2.403894 -11.317919 1.880790849211783e-38 1700951363
0.700567 -1.500459 -12.001352 1.880790849211783e-38 1700951363
0.708682 -1.455692 -12.140369 1.880790849211783e-38 1700951363
0.702401 -1.371338 -12.032776 1.880790849211783e-38 1700951363
0.689242 -1.773582 -11.807345 1.880790849211783e-38 1700951363
0.689152 -1.695994 -11.805808 1.880790849211783e-38 1700951363
0.696522 -1.648163 -11.932059 1.880790849211783e-38 1700951363
0.697535 -1.582050 -11.949414 1.880790849211783e-38 1700951363
0.660620 -2.275820 -11.317035 1.880790849211783e-38 1700951363
0.662265 -2.163009 -11.345213 1.880790849211783e-38 1700951363
0.669263 -3.383156 -11.465089 1.880790849211783e-38 1700951363
0.659078 -3.246130 -11.290611 1.880790849211783e-38 1700951363
0.651124 -3.097323 -11.154356 1.880790849211783e-38 1700951363
0.644093 -2.964468 -11.033913 1.880790849211783e-38 1700951363
0.632243 -2.799036 -10.830900 1.880790849211783e-38 1700951363
0.633420 -2.675377 -10.851065 1.880790849211783e-38 1700951363
0.687918 -3.742896 -11.784669 1.880790849211783e-38 1700951363
0.682757 -3.580699 -11.696261 1.880790849211783e-38 1700951363
0.669213 -2.094151 -11.464236 1.880790849211783e-38 1700951363
0.672411 -2.000377 -11.519025 1.880790849211783e-38 1700951363
0.638672 -2.576584 -10.941043 1.880790849211783e-38 1700951363
0.647474 -2.543958 -11.091833 1.880790849211783e-38 1700951363
0.661452 -1.874967 -11.331292 1.880790849211783e-38 1700951363
0.677504 -1.818275 -11.606264 1.880790849211783e-38 1700951363
0.646024 -2.431752 -11.066982 1.880790849211783e-38 1700951363
0.658422 -2.395277 -11.279386 1.880790849211783e-38 1700951363
0.664335 -1.500386 -12.002833 1.880790849211783e-38 1700951363
0.666302 -1.443214 -12.038371 1.880790849211783e-38 1700951363
0.669002 -1.377298 -12.087139 1.880790849211783e-38 1700951363
0.676767 -1.308171 -12.227431 1.880790849211783e-38 1700951363
0.645021 -1.750228 -11.653872 1.880790849211783e-38 1700951363
0.653233 -1.695191 -11.802245 1.880790849211783e-38 1700951363
0.662058 -1.651972 -11.961687 1.880790849211783e-38 1700951363
0.663606 -1.587105 -11.989649 1.880790849211783e-38 1700951363
0.616501 -2.239552 -11.138592 1.880790849211783e-38 1700951363
0.633994 -2.183497 -11.454637 1.880790849211783e-38 1700951363
0.638704 -3.404601 -11.539742 1.880790849211783e-38 1700951363
0.630053 -3.272254 -11.383429 1.880790849211783e-38 1700951363
0.618002 -3.099943 -11.165708 1.880790849211783e-38 1700951363
0.616223 -2.990728 -11.133566 1.880790849211783e-38 1700951363
0.599297 -2.797743 -10.827754 1.880790849211783e-38 1700951363
0.607996 -2.707915 -10.984921 1.880790849211783e-38 1700951363
0.648753 -3.722132 -11.721305 1.880790849211783e-38 1700951363
0.651020 -3.600286 -11.762259 1.880790849211783e-38 1700951363
0.638745 -2.107718 -11.540487 1.880790849211783e-38 1700951363
0.639250 -2.005344 -11.549605 1.880790849211783e-38 1700951363
0.603937 -2.569207 -10.911590 1.880790849211783e-38 1700951363
0.606132 -2.511283 -10.951242 1.880790849211783e-38 1700951363
0.636334 -1.902046 -11.496917 1.880790849211783e-38 1700951363
0.642528 -1.818366 -11.608837 1.880790849211783e-38 1700951363
0.614336 -2.438473 -11.099476 1.880790849211783e-38 1700951363
0.618239 -2.371638 -11.169984 1.880790849211783e-38 1700951363
0.630679 -1.506471 -12.053464 1.880790849211783e-38 1700951363
0.627636 -1.437817 -11.995302 1.880790849211783e-38 1700951363
0.619907 -1.349782 -11.847584 1.880790849211783e-38 1700951363
0.638885 -1.306126 -12.210299 1.880790849211783e-38 1700951363
0.611340 -1.754446 -11.683851 1.880790849211783e-38 1700951363
0.618831 -1.698474 -11.827024 1.880790849211783e-38 1700951363
0.641541 -1.256341 -12.261062 1.880790849211783e-38 1700951363
0.613497 -1.619032 -11.725072 1.880790849211783e-38 1700951363
0.626087 -1.583677 -11.965695 1.880790849211783e-38 1700951363
0.587449 -2.257010 -11.227247 1.880790849211783e-38 1700951363
0.595284 -2.168344 -11.376991 1.880790849211783e-38 1700951363
0.592699 -3.341468 -11.327594 1.880790849211783e-38 1700951363
0.586162 -3.219765 -11.202650 1.880790849211783e-38 1700951363
0.584404 -3.100370 -11.169057 1.880790849211783e-38 1700951363
0.572842 -2.940427 -10.948088 1.880790849211783e-38 1700951363
0.574780 -2.837944 -10.985121 1.880790849211783e-38 1700951363
0.567564 -2.673537 -10.847223 1.880790849211783e-38 1700951363
0.609188 -3.696580 -11.642728 1.880790849211783e-38 1700951363
0.616210 -3.604192 -11.776932 1.880790849211783e-38 1700951363
0.597972 -2.086902 -11.428370 1.880790849211783e-38 1700951363
0.595586 -1.976055 -11.382766 1.880790849211783e-38 1700951363
0.562924 -2.532759 -10.758540 1.880790849211783e-38 1700951363
0.572605 -2.509112 -10.943552 1.880790849211783e-38 1700951363
0.593765 -1.877098 -11.347960 1.880790849211783e-38 1700951363
0.604137 -1.808259 -11.546185 1.880790849211783e-38 1700951363
0.588107 -2.468909 -11.239836 1.880790849211783e-38 1700951363
0.583505 -2.367409 -11.151875 1.880790849211783e-38 1700951363
0.586961 -1.487803 -11.905921 1.880790849211783e-38 1700951363
0.587178 -1.427411 -11.910316 1.880790849211783e-38 1700951363
0.586917 -1.356118 -11.905026 1.880790849211783e-38 1700951363
0.598214 -1.297784 -12.134174 1.880790849211783e-38 1700951363
0.578323 -1.761211 -11.730700 1.880790849211783e-38 1700951363
0.575984 -1.677572 -11.683261 1.880790849211783e-38 1700951363
0.601840 -1.250685 -12.207733 1.880790849211783e-38 1700951363
0.583231 -1.633305 -11.830252 1.880790849211783e-38 1700951363
0.581123 -1.559852 -11.787494 1.880790849211783e-38 1700951363
0.543563 -2.216143 -11.025644 1.880790849211783e-38 1700951363
0.555306 -2.146448 -11.263832 1.880790849211783e-38 1700951363
0.561626 -3.359957 -11.392016 1.880790849211783e-38 1700951363
0.554474 -3.232001 -11.246945 1.880790849211783e-38 1700951363
0.557564 -3.138912 -11.309637 1.880790849211783e-38 1700951363
0.543812 -2.962157 -11.030684 1.880790849211783e-38 1700951363
0.537083 -2.814020 -10.894186 1.880790849211783e-38 1700951363
0.535199 -2.675287 -10.855988 1.880790849211783e-38 1700951363
0.580024 -3.734894 -11.765203 1.880790849211783e-38 1700951363
0.579398 -3.596167 -11.752509 1.880790849211783e-38 1700951363
0.557175 -2.063462 -11.301735 1.880790849211783e-38 1700951363
0.562900 -1.981844 -11.417863 1.880790849211783e-38 1700951363
0.534097 -2.550047 -10.833635 1.880790849211783e-38 1700951363
0.535442 -2.489782 -10.860910 1.880790849211783e-38 1700951363
0.560575 -1.880571 -11.370697 1.880790849211783e-38 1700951363
0.569319 -1.808278 -11.548079 1.880790849211783e-38 1700951363
0.541263 -2.411239 -10.978973 1.880790849211783e-38 1700951363
0.550422 -2.369783 -11.164768 1.880790849211783e-38 1700951363
0.548416 -1.480691 -11.850719 1.880790849211783e-38 1700951363
0.554359 -1.435451 -11.979126 1.880790849211783e-38 1700951363
0.542368 -1.334851 -11.720017 1.880790849211783e-38 1700951363
0.562703 -1.300299 -12.159435 1.880790849211783e-38 1700951363
0.534057 -1.732393 -11.540423 1.880790849211783e-38 1700951363
0.538964 -1.672047 -11.646462 1.880790849211783e-38 1700951363
0.562488 -1.245081 -12.154785 1.880790849211783e-38 1700951363
0.542254 -1.617514 -11.717566 1.880790849211783e-38 1700951363
0.549019 -1.569717 -11.863748 1.880790849211783e-38 1700951363
0.514322 -2.233576 -11.113978 1.880790849211783e-38 1700951363
0.522848 -2.152691 -11.298222 1.880790849211783e-38 1700951363
