# .PCD v0.7 - Point Cloud Data file format
VERSION 0.7
FIELDS x y z rgb label
SIZE 4 4 4 4 4
TYPE F F F F U
COUNT 1 1 1 1 1
WIDTH 744
HEIGHT 1
VIEWPOINT 0 0 0 1 0 0 0
POINTS 744
DATA ascii
-0.991855 -2.492970 -11.717501 1.880790849211783e-38 1700951363
-1.093441 -1.877111 -12.470002 1.880790849211783e-38 1700951363
-1.100610 -1.806998 -12.551758 1.880790849211783e-38 1700951363
-1.123768 -1.774014 -12.815857 1.880790849211783e-38 1700951363
-1.105840 -1.673252 -12.611396 1.880790849211783e-38 1700951363
-1.035322 -2.379450 -11.807194 1.880790849211783e-38 1700951363
-1.059131 -2.307761 -12.078710 1.880790849211783e-38 1700951363
-1.031201 -3.477631 -11.760191 1.880790849211783e-38 1700951363
-0.996333 -3.273774 -11.362547 1.880790849211783e-38 1700951363
-1.001739 -3.179012 -11.424194 1.880790849211783e-38 1700951363
-0.990255 -3.040603 -11.293225 1.880790849211783e-38 1700951363
-0.987874 -2.917703 -11.266075 1.880790849211783e-38 1700951363
-1.008455 -2.841611 -11.500786 1.880790849211783e-38 1700951363
-1.055217 -2.202928 -12.034081 1.880790849211783e-38 1700951363
-1.057706 -2.099214 -12.062463 1.880790849211783e-38 1700951363
-0.998882 -2.688409 -11.391613 1.880790849211783e-38 1700951363
-0.993049 -2.602992 -11.325088 1.880790849211783e-38 1700951363
-1.053955 -1.993112 -12.019683 1.880790849211783e-38 1700951363
-1.075308 -1.925287 -12.263205 1.880790849211783e-38 1700951363
-0.988149 -2.481465 -11.269214 1.880790849211783e-38 1700951363
-1.033906 -2.509266 -11.791033 1.880790849211783e-38 1700951363
-1.137105 -1.887172 -12.533466 1.880790849211783e-38 1700951363
-1.148904 -1.823578 -12.663521 1.880790849211783e-38 1700951363
-1.152210 -1.758443 -12.699954 1.880790849211783e-38 1700951363
-1.184922 -1.733307 -13.060523 1.880790849211783e-38 1700951363
-1.074738 -2.387920 -11.846037 1.880790849211783e-38 1700951363
-1.094445 -2.305429 -12.063259 1.880790849211783e-38 1700951363
-1.071710 -3.494088 -11.812664 1.880790849211783e-38 1700951363
-1.038155 -3.297787 -11.442813 1.880790849211783e-38 1700951363
-1.043785 -3.202322 -11.504869 1.880790849211783e-38 1700951363
-1.038913 -3.083958 -11.451171 1.880790849211783e-38 1700951363
-1.003571 -2.865524 -11.061620 1.880790849211783e-38 1700951363
-1.039528 -2.831789 -11.457951 1.880790849211783e-38 1700951363
-1.117824 -2.256047 -12.320945 1.880790849211783e-38 1700951363
-1.100082 -2.110732 -12.125385 1.880790849211783e-38 1700951363
-1.053875 -2.742120 -11.616079 1.880790849211783e-38 1700951363
-1.005626 -2.548328 -11.084273 1.880790849211783e-38 1700951363
-1.086328 -1.986037 -11.973795 1.880790849211783e-38 1700951363
-1.126456 -1.949815 -12.416095 1.880790849211783e-38 1700951363
-1.058434 -2.569601 -11.666331 1.880790849211783e-38 1700951363
-1.078033 -2.529382 -11.882360 1.880790849211783e-38 1700951363
-1.189213 -1.910162 -12.682622 1.880790849211783e-38 1700951363
-1.147384 -1.762580 -12.236524 1.880790849211783e-38 1700951363
-1.194246 -1.763965 -12.736288 1.880790849211783e-38 1700951363
-1.125849 -2.421012 -12.006860 1.880790849211783e-38 1700951363
-1.128891 -2.301491 -12.039303 1.880790849211783e-38 1700951363
-1.075735 -3.307235 -11.472404 1.880790849211783e-38 1700951363
-1.065320 -3.163250 -11.361336 1.880790849211783e-38 1700951363
-1.077493 -3.095586 -11.491151 1.880790849211783e-38 1700951363
-1.050999 -2.904408 -11.208605 1.880790849211783e-38 1700951363
-1.056914 -2.786531 -11.271689 1.880790849211783e-38 1700951363
-1.125385 -2.198242 -12.001915 1.880790849211783e-38 1700951363
-1.141851 -2.120397 -12.177515 1.880790849211783e-38 1700951363
-1.044361 -2.629950 -11.137810 1.880790849211783e-38 1700951363
-1.090608 -2.674772 -11.631021 1.880790849211783e-38 1700951363
-1.143866 -2.023954 -12.199000 1.880790849211783e-38 1700951363
-1.167925 -1.956562 -12.455588 1.880790849211783e-38 1700951363
-1.083264 -2.545281 -11.552700 1.880790849211783e-38 1700951363
-1.109941 -2.520472 -11.837207 1.880790849211783e-38 1700951363
-1.208049 -1.879956 -12.478485 1.880790849211783e-38 1700951363
-1.248514 -1.858174 -12.896472 1.880790849211783e-38 1700951363
-1.225004 -1.753020 -12.653626 1.880790849211783e-38 1700951363
-1.121137 -2.335761 -11.580735 1.880790849211783e-38 1700951363
-1.170995 -2.312945 -12.095744 1.880790849211783e-38 1700951363
-1.119627 -3.334925 -11.565131 1.880790849211783e-38 1700951363
-1.114179 -3.205246 -11.508863 1.880790849211783e-38 1700951363
-1.107287 -3.082065 -11.437670 1.880790849211783e-38 1700951363
-1.099853 -2.944712 -11.360880 1.880790849211783e-38 1700951363
-1.097357 -2.803012 -11.335097 1.880790849211783e-38 1700951363
-1.179482 -2.232125 -12.183404 1.880790849211783e-38 1700951363
-1.195118 -2.150163 -12.344917 1.880790849211783e-38 1700951363
-1.112184 -2.713480 -11.488254 1.880790849211783e-38 1700951363
-1.109816 -2.637072 -11.463791 1.880790849211783e-38 1700951363
-1.165680 -1.998287 -12.040837 1.880790849211783e-38 1700951363
-1.190868 -1.932837 -12.301020 1.880790849211783e-38 1700951363
-1.135793 -2.585553 -11.732120 1.880790849211783e-38 1700951363
-1.137044 -2.501566 -11.745043 1.880790849211783e-38 1700951363
-1.262881 -1.905918 -12.647058 1.880790849211783e-38 1700951363
-1.271226 -1.834823 -12.730628 1.880790849211783e-38 1700951363
-1.286424 -1.785303 -12.882829 1.880790849211783e-38 1700951363
-1.163434 -2.350661 -11.651155 1.880790849211783e-38 1700951363
-1.223222 -2.343117 -12.249895 1.880790849211783e-38 1700951363
-1.163484 -3.360870 -11.651649 1.880790849211783e-38 1700951363
-1.142804 -3.188281 -11.444550 1.880790849211783e-38 1700951363
-1.132229 -3.056289 -11.338653 1.880790849211783e-38 1700951363
-1.097608 -2.849930 -10.991942 1.880790849211783e-38 1700951363
-1.133674 -2.808302 -11.353124 1.880790849211783e-38 1700951363
-1.230913 -2.259088 -12.326918 1.880790849211783e-38 1700951363
-1.243894 -2.170314 -12.456916 1.880790849211783e-38 1700951363
-1.156389 -2.736104 -11.580606 1.880790849211783e-38 1700951363
-1.164226 -2.682792 -11.659087 1.880790849211783e-38 1700951363
-1.245566 -2.070731 -12.473655 1.880790849211783e-38 1700951363
-1.267026 -1.994323 -12.688569 1.880790849211783e-38 1700951363
-1.176491 -2.597296 -11.781908 1.880790849211783e-38 1700951363
-1.208032 -2.577460 -12.097781 1.880790849211783e-38 1700951363
-1.213091 -2.379149 -11.788752 1.880790849211783e-38 1700951363
-1.246692 -2.318077 -12.115280 1.880790849211783e-38 1700951363
-1.190928 -3.225153 -11.573367 1.880790849211783e-38 1700951363
-1.167299 -3.058597 -11.343747 1.880790849211783e-38 1700951363
-1.148103 -2.893662 -11.157202 1.880790849211783e-38 1700951363
-1.217061 -2.926495 -11.827326 1.880790849211783e-38 1700951363
-1.273412 -2.268582 -12.374938 1.880790849211783e-38 1700951363
-1.286940 -2.179603 -12.506408 1.880790849211783e-38 1700951363
-1.191286 -2.736053 -11.576852 1.880790849211783e-38 1700951363
-1.208924 -2.704137 -11.748256 1.880790849211783e-38 1700951363
-1.259170 -2.031989 -12.236540 1.880790849211783e-38 1700951363
-1.287971 -1.967868 -12.516428 1.880790849211783e-38 1700951363
-1.203841 -2.579776 -11.698857 1.880790849211783e-38 1700951363
-1.240665 -2.569496 -12.056713 1.880790849211783e-38 1700951363
-1.278279 -2.435622 -12.064774 1.880790849211783e-38 1700951363
-1.290270 -2.330801 -12.177947 1.880790849211783e-38 1700951363
-1.186401 -3.121422 -11.197605 1.880790849211783e-38 1700951363
-1.177184 -2.996680 -11.110609 1.880790849211783e-38 1700951363
-1.231710 -3.016000 -11.625246 1.880790849211783e-38 1700951363
-1.225786 -2.863559 -11.569327 1.880790849211783e-38 1700951363
-1.319783 -2.284254 -12.456502 1.880790849211783e-38 1700951363
-1.319874 -2.171740 -12.457365 1.880790849211783e-38 1700951363
-1.237208 -2.760623 -11.677131 1.880790849211783e-38 1700951363
-1.227852 -2.668280 -11.588825 1.880790849211783e-38 1700951363
-1.254361 -2.611508 -11.839026 1.880790849211783e-38 1700951363
-1.271269 -2.557919 -11.998612 1.880790849211783e-38 1700951363
-1.298379 -2.405458 -11.911496 1.880790849211783e-38 1700951363
-1.342933 -2.358800 -12.320241 1.880790849211783e-38 1700951363
-1.231503 -3.150419 -11.297965 1.880790849211783e-38 1700951363
-1.221136 -3.022542 -11.202864 1.880790849211783e-38 1700951363
-1.236278 -2.943412 -11.341774 1.880790849211783e-38 1700951363
-1.275374 -2.896951 -11.700444 1.880790849211783e-38 1700951363
-1.280966 -2.779164 -11.751749 1.880790849211783e-38 1700951363
-1.269716 -2.682898 -11.648535 1.880790849211783e-38 1700951363
-1.300735 -2.633116 -11.933113 1.880790849211783e-38 1700951363
-1.298786 -2.540967 -11.915230 1.880790849211783e-38 1700951363
-1.268030 -3.156546 -11.316162 1.880790849211783e-38 1700951363
-1.256026 -3.025214 -11.209031 1.880790849211783e-38 1700951363
-1.263919 -2.928220 -11.279475 1.880790849211783e-38 1700951363
-1.308086 -2.891275 -11.673628 1.880790849211783e-38 1700951363
-1.326805 -2.801129 -11.840682 1.880790849211783e-38 1700951363
-1.326247 -2.726915 -11.835701 1.880790849211783e-38 1700951363
-1.316745 -2.593774 -11.750901 1.880790849211783e-38 1700951363
-1.370762 -2.609594 -12.232965 1.880790849211783e-38 1700951363
-1.316967 -3.192453 -11.440969 1.880790849211783e-38 1700951363
-1.295227 -3.037881 -11.252110 1.880790849211783e-38 1700951363
-1.312281 -2.960593 -11.400269 1.880790849211783e-38 1700951363
-1.353876 -2.914066 -11.761619 1.880790849211783e-38 1700951363
-1.355663 -2.787052 -11.777139 1.880790849211783e-38 1700951363
-1.340596 -2.684185 -11.646249 1.880790849211783e-38 1700951363
-1.344466 -3.175917 -11.377705 1.880790849211783e-38 1700951363
-1.362205 -3.113415 -11.527824 1.880790849211783e-38 1700951363
-1.351072 -2.970296 -11.433611 1.880790849211783e-38 1700951363
-1.380205 -2.894899 -11.680147 1.880790849211783e-38 1700951363
-1.352004 -3.013207 -11.152767 1.880790849211783e-38 1700951363
-1.403005 -3.007715 -11.573471 1.880790849211783e-38 1700951363
1.365807 -3.315754 -11.172627 1.880790849211783e-38 1700951363
1.412098 -3.340118 -11.551303 1.880790849211783e-38 1700951363
1.437593 -3.284174 -11.759851 1.880790849211783e-38 1700951363
1.488509 -2.524970 -12.488969 1.880790849211783e-38 1700951363
1.511687 -2.431124 -12.683442 1.880790849211783e-38 1700951363
1.349926 -3.360116 -11.326230 1.880790849211783e-38 1700951363
1.374992 -3.334634 -11.536535 1.880790849211783e-38 1700951363
1.361620 -3.189315 -11.424341 1.880790849211783e-38 1700951363
1.385521 -3.140001 -11.624879 1.880790849211783e-38 1700951363
1.388031 -3.025816 -11.645936 1.880790849211783e-38 1700951363
1.413908 -2.940582 -11.863050 1.880790849211783e-38 1700951363
1.489695 -2.295407 -12.498921 1.880790849211783e-38 1700951363
1.511273 -2.213801 -12.679970 1.880790849211783e-38 1700951363
1.428321 -2.837337 -11.983984 1.880790849211783e-38 1700951363
1.448952 -2.803238 -12.157075 1.880790849211783e-38 1700951363
1.489109 -2.078452 -12.494006 1.880790849211783e-38 1700951363
1.520090 -2.008797 -12.753949 1.880790849211783e-38 1700951363
1.446579 -2.681216 -12.137172 1.880790849211783e-38 1700951363
1.451223 -2.599585 -12.176133 1.880790849211783e-38 1700951363
1.426170 -2.482038 -12.280978 1.880790849211783e-38 1700951363
1.449482 -2.391611 -12.481726 1.880790849211783e-38 1700951363
1.327812 -3.390885 -11.434002 1.880790849211783e-38 1700951363
1.297727 -3.228967 -11.174935 1.880790849211783e-38 1700951363
1.339605 -3.219219 -11.535552 1.880790849211783e-38 1700951363
1.329887 -3.092174 -11.451876 1.880790849211783e-38 1700951363
1.351505 -3.022689 -11.638030 1.880790849211783e-38 1700951363
1.358913 -2.899587 -11.701818 1.880790849211783e-38 1700951363
1.446240 -2.286310 -12.453808 1.880790849211783e-38 1700951363
1.439638 -2.163622 -12.396957 1.880790849211783e-38 1700951363
1.395206 -2.843517 -12.014344 1.880790849211783e-38 1700951363
1.385642 -2.750361 -11.931990 1.880790849211783e-38 1700951363
1.438500 -2.059946 -12.387155 1.880790849211783e-38 1700951363
1.482911 -2.010546 -12.769584 1.880790849211783e-38 1700951363
1.418205 -2.696875 -12.212387 1.880790849211783e-38 1700951363
1.423260 -2.615692 -12.255924 1.880790849211783e-38 1700951363
1.343819 -2.401089 -11.884557 1.880790849211783e-38 1700951363
1.365611 -2.313316 -12.077279 1.880790849211783e-38 1700951363
1.267206 -3.322415 -11.206997 1.880790849211783e-38 1700951363
1.263963 -3.228828 -11.178316 1.880790849211783e-38 1700951363
1.289572 -3.181630 -11.404799 1.880790849211783e-38 1700951363
1.290859 -3.081471 -11.416182 1.880790849211783e-38 1700951363
1.282996 -2.945990 -11.346642 1.880790849211783e-38 1700951363
1.351599 -2.960893 -11.953362 1.880790849211783e-38 1700951363
1.395352 -2.264690 -12.340303 1.880790849211783e-38 1700951363
1.427815 -2.203079 -12.627398 1.880790849211783e-38 1700951363
1.338467 -2.800626 -11.837215 1.880790849211783e-38 1700951363
1.315513 -2.680797 -11.634216 1.880790849211783e-38 1700951363
1.388102 -2.040786 -12.276182 1.880790849211783e-38 1700951363
1.400612 -1.949607 -12.386823 1.880790849211783e-38 1700951363
1.376915 -2.688186 -12.177251 1.880790849211783e-38 1700951363
1.388884 -2.620587 -12.283104 1.880790849211783e-38 1700951363
1.406204 -1.928202 -12.781435 1.880790849211783e-38 1700951363
1.296538 -2.380104 -11.784648 1.880790849211783e-38 1700951363
1.347325 -2.344895 -12.246267 1.880790849211783e-38 1700951363
1.268936 -3.418139 -11.533767 1.880790849211783e-38 1700951363
1.236159 -3.244354 -11.235847 1.880790849211783e-38 1700951363
1.277011 -3.236995 -11.607163 1.880790849211783e-38 1700951363
1.251179 -3.068611 -11.372363 1.880790849211783e-38 1700951363
1.271977 -3.000741 -11.561404 1.880790849211783e-38 1700951363
1.293701 -2.911736 -11.758863 1.880790849211783e-38 1700951363
1.338022 -2.231164 -12.161710 1.880790849211783e-38 1700951363
1.373756 -2.177766 -12.486512 1.880790849211783e-38 1700951363
1.314400 -2.825651 -11.947003 1.880790849211783e-38 1700951363
1.312984 -2.748980 -11.934134 1.880790849211783e-38 1700951363
1.374223 -2.075758 -12.490753 1.880790849211783e-38 1700951363
1.365878 -1.953369 -12.414903 1.880790849211783e-38 1700951363
1.321523 -2.650759 -12.011748 1.880790849211783e-38 1700951363
1.336241 -2.590363 -12.145526 1.880790849211783e-38 1700951363
1.357749 -1.914245 -12.693073 1.880790849211783e-38 1700951363
1.267770 -2.392902 -11.851895 1.880790849211783e-38 1700951363
1.296482 -2.320018 -12.120314 1.880790849211783e-38 1700951363
1.203007 -3.331898 -11.246447 1.880790849211783e-38 1700951363
1.205083 -3.251954 -11.265852 1.880790849211783e-38 1700951363
1.210338 -3.154480 -11.314981 1.880790849211783e-38 1700951363
1.204615 -3.037698 -11.261481 1.880790849211783e-38 1700951363
1.265570 -3.069793 -11.831323 1.880790849211783e-38 1700951363
1.270562 -2.940272 -11.877992 1.880790849211783e-38 1700951363
1.312245 -2.249867 -12.267673 1.880790849211783e-38 1700951363
1.307403 -2.131007 -12.222408 1.880790849211783e-38 1700951363
1.252741 -2.769018 -11.711390 1.880790849211783e-38 1700951363
1.226761 -2.640862 -11.468513 1.880790849211783e-38 1700951363
1.324199 -2.056583 -12.379421 1.880790849211783e-38 1700951363
1.351656 -1.987523 -12.636107 1.880790849211783e-38 1700951363
1.312829 -2.707554 -12.273129 1.880790849211783e-38 1700951363
1.298403 -2.587968 -12.138266 1.880790849211783e-38 1700951363
1.298438 -1.883741 -12.494781 1.880790849211783e-38 1700951363
1.246638 -2.421290 -11.996314 1.880790849211783e-38 1700951363
1.269002 -2.336733 -12.211516 1.880790849211783e-38 1700951363
1.214629 -3.461700 -11.688294 1.880790849211783e-38 1700951363
1.179554 -3.275423 -11.350767 1.880790849211783e-38 1700951363
1.191132 -3.194501 -11.462183 1.880790849211783e-38 1700951363
1.175202 -3.049517 -11.308893 1.880790849211783e-38 1700951363
1.178231 -2.940866 -11.338031 1.880790849211783e-38 1700951363
1.235386 -2.941821 -11.888030 1.880790849211783e-38 1700951363
1.281325 -2.260597 -12.330102 1.880790849211783e-38 1700951363
1.261037 -2.115072 -12.134875 1.880790849211783e-38 1700951363
1.191611 -2.710323 -11.466788 1.880790849211783e-38 1700951363
1.213937 -2.689082 -11.681634 1.880790849211783e-38 1700951363
1.268258 -2.026856 -12.204359 1.880790849211783e-38 1700951363
1.285573 -1.945204 -12.370985 1.880790849211783e-38 1700951363
1.247370 -2.647199 -12.003362 1.880790849211783e-38 1700951363
1.263209 -2.590876 -12.155771 1.880790849211783e-38 1700951363
1.281965 -1.915443 -12.708980 1.880790849211783e-38 1700951363
1.267153 -1.810721 -12.562132 1.880790849211783e-38 1700951363
1.206315 -2.413015 -11.959008 1.880790849211783e-38 1700951363
1.218156 -2.310163 -12.076393 1.880790849211783e-38 1700951363
1.167208 -3.425996 -11.571312 1.880790849211783e-38 1700951363
1.105825 -3.162488 -10.962784 1.880790849211783e-38 1700951363
1.133228 -3.130065 -11.234447 1.880790849211783e-38 1700951363
1.128736 -3.016501 -11.189914 1.880790849211783e-38 1700951363
1.158908 -2.979113 -11.489034 1.880790849211783e-38 1700951363
1.185508 -2.907443 -11.752737 1.880790849211783e-38 1700951363
1.253020 -2.276747 -12.422025 1.880790849211783e-38 1700951363
1.234814 -2.133005 -12.241537 1.880790849211783e-38 1700951363
1.184742 -2.775258 -11.745141 1.880790849211783e-38 1700951363
1.184848 -2.703109 -11.746195 1.880790849211783e-38 1700951363
1.226227 -2.018269 -12.156409 1.880790849211783e-38 1700951363
1.265803 -1.972547 -12.548756 1.880790849211783e-38 1700951363
1.186855 -2.594070 -11.766085 1.880790849211783e-38 1700951363
1.194142 -2.522436 -11.838325 1.880790849211783e-38 1700951363
1.229298 -1.893370 -12.566290 1.880790849211783e-38 1700951363
1.256540 -1.850906 -12.844770 1.880790849211783e-38 1700951363
1.121359 -2.312221 -11.462900 1.880790849211783e-38 1700951363
1.186275 -2.319053 -12.126498 1.880790849211783e-38 1700951363
1.127949 -3.412819 -11.530261 1.880790849211783e-38 1700951363
1.116015 -3.290015 -11.408272 1.880790849211783e-38 1700951363
1.100622 -3.133716 -11.250921 1.880790849211783e-38 1700951363
1.105163 -3.044549 -11.297344 1.880790849211783e-38 1700951363
1.114644 -2.953654 -11.394260 1.880790849211783e-38 1700951363
1.133783 -2.866302 -11.589902 1.880790849211783e-38 1700951363
1.145642 -3.596245 -11.711135 1.880790849211783e-38 1700951363
1.180829 -2.211716 -12.070826 1.880790849211783e-38 1700951363
1.200530 -2.137709 -12.272213 1.880790849211783e-38 1700951363
1.163934 -2.810563 -11.898119 1.880790849211783e-38 1700951363
1.165416 -2.740735 -11.913269 1.880790849211783e-38 1700951363
1.166399 -1.978976 -11.923316 1.880790849211783e-38 1700951363
1.208675 -1.941583 -12.355476 1.880790849211783e-38 1700951363
1.166021 -2.627095 -11.919450 1.880790849211783e-38 1700951363
1.177639 -2.564259 -12.038211 1.880790849211783e-38 1700951363
1.164686 -1.850924 -12.288142 1.880790849211783e-38 1700951363
1.176601 -1.788292 -12.413853 1.880790849211783e-38 1700951363
1.191085 -1.740636 -12.566661 1.880790849211783e-38 1700951363
1.120888 -2.384779 -11.826046 1.880790849211783e-38 1700951363
1.120957 -2.261077 -11.826775 1.880790849211783e-38 1700951363
1.079760 -3.370950 -11.392117 1.880790849211783e-38 1700951363
1.087476 -3.307873 -11.473530 1.880790849211783e-38 1700951363
1.058793 -3.110525 -11.170905 1.880790849211783e-38 1700951363
1.028235 -2.922739 -10.848497 1.880790849211783e-38 1700951363
1.077932 -2.947242 -11.372829 1.880790849211783e-38 1700951363
1.081901 -2.822154 -11.414705 1.880790849211783e-38 1700951363
1.092678 -3.539107 -11.528415 1.880790849211783e-38 1700951363
1.153565 -2.229387 -12.170805 1.880790849211783e-38 1700951363
1.149404 -2.111784 -12.126904 1.880790849211783e-38 1700951363
1.089134 -2.713609 -11.491014 1.880790849211783e-38 1700951363
1.091620 -2.648858 -11.517243 1.880790849211783e-38 1700951363
1.142733 -2.000504 -12.056518 1.880790849211783e-38 1700951363
1.177881 -1.952311 -12.427354 1.880790849211783e-38 1700951363
1.099203 -2.555340 -11.597258 1.880790849211783e-38 1700951363
1.133324 -2.546273 -11.957250 1.880790849211783e-38 1700951363
1.147564 -1.883660 -12.508991 1.880790849211783e-38 1700951363
1.137234 -1.785275 -12.396396 1.880790849211783e-38 1700951363
1.154682 -1.742905 -12.586582 1.880790849211783e-38 1700951363
1.085725 -2.385897 -11.834918 1.880790849211783e-38 1700951363
1.089095 -2.269019 -11.871655 1.880790849211783e-38 1700951363
1.047753 -3.378550 -11.421010 1.880790849211783e-38 1700951363
1.020627 -3.206581 -11.125320 1.880790849211783e-38 1700951363
1.060860 -3.219042 -11.563876 1.880790849211783e-38 1700951363
1.041813 -3.058677 -11.356259 1.880790849211783e-38 1700951363
1.018261 -2.875608 -11.099531 1.880790849211783e-38 1700951363
1.061319 -2.859468 -11.568879 1.880790849211783e-38 1700951363
1.067930 -3.572648 -11.640947 1.880790849211783e-38 1700951363
1.092138 -2.180054 -11.904830 1.880790849211783e-38 1700951363
1.101602 -2.090487 -12.007985 1.880790849211783e-38 1700951363
1.049745 -2.701444 -11.442719 1.880790849211783e-38 1700951363
1.050972 -2.634054 -11.456100 1.880790849211783e-38 1700951363
1.127109 -2.038012 -12.286028 1.880790849211783e-38 1700951363
1.105475 -1.892530 -12.050206 1.880790849211783e-38 1700951363
1.069444 -2.567880 -11.657447 1.880790849211783e-38 1700951363
1.095794 -2.542881 -11.944680 1.880790849211783e-38 1700951363
1.106702 -1.878348 -12.477113 1.880790849211783e-38 1700951363
1.103707 -1.791549 -12.443345 1.880790849211783e-38 1700951363
1.090340 -1.701740 -12.292643 1.880790849211783e-38 1700951363
1.129419 -1.689566 -12.733226 1.880790849211783e-38 1700951363
1.024026 -2.326819 -11.545011 1.880790849211783e-38 1700951363
1.041301 -2.243203 -11.739774 1.880790849211783e-38 1700951363
1.009850 -3.367039 -11.385196 1.880790849211783e-38 1700951363
0.968322 -3.145682 -10.916999 1.880790849211783e-38 1700951363
0.985218 -3.091154 -11.107483 1.880790849211783e-38 1700951363
0.989654 -3.004326 -11.157498 1.880790849211783e-38 1700951363
1.007622 -2.942308 -11.360073 1.880790849211783e-38 1700951363
1.024661 -2.854561 -11.552173 1.880790849211783e-38 1700951363
1.039388 -3.595381 -11.718205 1.880790849211783e-38 1700951363
1.048794 -2.164709 -11.824249 1.880790849211783e-38 1700951363
1.078124 -2.115492 -12.154921 1.880790849211783e-38 1700951363
1.002279 -2.666985 -11.299833 1.880790849211783e-38 1700951363
1.021047 -2.646055 -11.511426 1.880790849211783e-38 1700951363
1.064102 -1.989500 -11.996838 1.880790849211783e-38 1700951363
1.101452 -1.949751 -12.417925 1.880790849211783e-38 1700951363
1.037843 -2.576726 -11.700791 1.880790849211783e-38 1700951363
1.049282 -2.517729 -11.829750 1.880790849211783e-38 1700951363
1.063686 -1.868896 -12.417593 1.880790849211783e-38 1700951363
1.058710 -1.779010 -12.359504 1.880790849211783e-38 1700951363
1.062685 -1.716967 -12.405902 1.880790849211783e-38 1700951363
1.055828 -1.635082 -12.325854 1.880790849211783e-38 1700951363
1.002980 -2.359229 -11.708896 1.880790849211783e-38 1700951363
1.026996 -2.290271 -11.989260 1.880790849211783e-38 1700951363
0.978000 -3.375638 -11.417275 1.880790849211783e-38 1700951363
0.927954 -3.120668 -10.833037 1.880790849211783e-38 1700951363
0.939235 -3.050626 -10.964735 1.880790849211783e-38 1700951363
0.938955 -2.950763 -10.961459 1.880790849211783e-38 1700951363
0.950456 -2.873085 -11.095724 1.880790849211783e-38 1700951363
0.966139 -2.786280 -11.278810 1.880790849211783e-38 1700951363
0.999370 -3.578652 -11.666751 1.880790849211783e-38 1700951363
1.014277 -2.167165 -11.840781 1.880790849211783e-38 1700951363
1.028742 -2.089658 -12.009646 1.880790849211783e-38 1700951363
0.975733 -2.687752 -11.390815 1.880790849211783e-38 1700951363
0.976752 -2.620375 -11.402707 1.880790849211783e-38 1700951363
1.023898 -1.981726 -11.953104 1.880790849211783e-38 1700951363
1.035438 -1.897421 -12.087819 1.880790849211783e-38 1700951363
0.970424 -2.494160 -11.328840 1.880790849211783e-38 1700951363
0.987609 -2.453173 -11.529460 1.880790849211783e-38 1700951363
1.009834 -1.839031 -12.222263 1.880790849211783e-38 1700951363
1.027202 -1.789058 -12.432467 1.880790849211783e-38 1700951363
1.021454 -1.710582 -12.362904 1.880790849211783e-38 1700951363
1.024466 -1.644414 -12.399350 1.880790849211783e-38 1700951363
0.954171 -2.326333 -11.548562 1.880790849211783e-38 1700951363
0.960740 -2.220711 -11.628069 1.880790849211783e-38 1700951363
0.942530 -3.371942 -11.407669 1.880790849211783e-38 1700951363
0.931581 -3.247202 -11.275146 1.880790849211783e-38 1700951363
0.922658 -3.106153 -11.167148 1.880790849211783e-38 1700951363
0.932329 -3.036874 -11.284204 1.880790849211783e-38 1700951363
0.939338 -2.943105 -11.369026 1.880790849211783e-38 1700951363
0.925291 -2.765867 -11.199020 1.880790849211783e-38 1700951363
0.966649 -3.587814 -11.699588 1.880790849211783e-38 1700951363
0.968676 -2.145267 -11.724113 1.880790849211783e-38 1700951363
0.990872 -2.086191 -11.992763 1.880790849211783e-38 1700951363
0.927525 -2.648202 -11.226050 1.880790849211783e-38 1700951363
0.946046 -2.630627 -11.450222 1.880790849211783e-38 1700951363
0.989172 -1.984385 -11.972179 1.880790849211783e-38 1700951363
0.996489 -1.892691 -12.060741 1.880790849211783e-38 1700951363
0.939303 -2.502280 -11.368609 1.880790849211783e-38 1700951363
0.969901 -2.497112 -11.738943 1.880790849211783e-38 1700951363
0.982504 -1.545681 -12.345076 1.880790849211783e-38 1700951363
0.977139 -1.846916 -12.277665 1.880790849211783e-38 1700951363
0.984869 -1.780324 -12.374795 1.880790849211783e-38 1700951363
0.970971 -1.687652 -12.200167 1.880790849211783e-38 1700951363
0.975588 -1.625295 -12.258184 1.880790849211783e-38 1700951363
0.939704 -2.377870 -11.807297 1.880790849211783e-38 1700951363
0.921547 -2.210829 -11.579158 1.880790849211783e-38 1700951363
0.899278 -3.339109 -11.299356 1.880790849211783e-38 1700951363
0.881130 -3.187723 -11.071327 1.880790849211783e-38 1700951363
0.877042 -3.064461 -11.019953 1.880790849211783e-38 1700951363
0.865086 -2.924613 -10.869732 1.880790849211783e-38 1700951363
0.896201 -2.914348 -11.260695 1.880790849211783e-38 1700951363
0.888347 -2.756052 -11.162010 1.880790849211783e-38 1700951363
0.937165 -3.610178 -11.775395 1.880790849211783e-38 1700951363
0.942220 -2.165745 -11.838920 1.880790849211783e-38 1700951363
0.950737 -2.077537 -11.945934 1.880790849211783e-38 1700951363
0.909029 -2.693737 -11.421870 1.880790849211783e-38 1700951363
0.923880 -2.666331 -11.608470 1.880790849211783e-38 1700951363
0.949077 -1.976094 -11.925076 1.880790849211783e-38 1700951363
0.958689 -1.889890 -12.045841 1.880790849211783e-38 1700951363
0.895762 -2.476708 -11.255178 1.880790849211783e-38 1700951363
0.916610 -2.449328 -11.517129 1.880790849211783e-38 1700951363
0.931601 -1.523335 -12.169468 1.880790849211783e-38 1700951363
0.929016 -1.825131 -12.135703 1.880790849211783e-38 1700951363
0.927968 -1.743547 -12.122017 1.880790849211783e-38 1700951363
0.931557 -1.682931 -12.168901 1.880790849211783e-38 1700951363
0.939822 -1.627388 -12.276863 1.880790849211783e-38 1700951363
0.857287 -2.254775 -11.198703 1.880790849211783e-38 1700951363
0.899803 -2.243701 -11.754089 1.880790849211783e-38 1700951363
0.867627 -3.348493 -11.333776 1.880790849211783e-38 1700951363
0.877098 -3.298134 -11.457495 1.880790849211783e-38 1700951363
0.854391 -3.102921 -11.160881 1.880790849211783e-38 1700951363
0.839646 -2.950428 -10.968259 1.880790849211783e-38 1700951363
0.841835 -2.845398 -10.996866 1.880790849211783e-38 1700951363
0.855606 -2.759043 -11.176751 1.880790849211783e-38 1700951363
0.899223 -3.600475 -11.746512 1.880790849211783e-38 1700951363
0.886471 -2.117870 -11.579941 1.880790849211783e-38 1700951363
0.921827 -2.093715 -12.041797 1.880790849211783e-38 1700951363
0.866018 -2.667375 -11.312757 1.880790849211783e-38 1700951363
0.868009 -2.603771 -11.338773 1.880790849211783e-38 1700951363
0.887272 -1.920184 -11.590403 1.880790849211783e-38 1700951363
0.909804 -1.864174 -11.884731 1.880790849211783e-38 1700951363
0.887423 -2.550307 -11.592369 1.880790849211783e-38 1700951363
0.890898 -2.474400 -11.637761 1.880790849211783e-38 1700951363
0.927708 -1.579188 -12.618513 1.880790849211783e-38 1700951363
0.890234 -1.453352 -12.108809 1.880790849211783e-38 1700951363
0.898900 -1.838398 -12.226683 1.880790849211783e-38 1700951363
0.907175 -1.774388 -12.339234 1.880790849211783e-38 1700951363
0.905082 -1.702164 -12.310757 1.880790849211783e-38 1700951363
0.907912 -1.636614 -12.349258 1.880790849211783e-38 1700951363
0.837872 -2.294098 -11.396585 1.880790849211783e-38 1700951363
0.850555 -2.207887 -11.569093 1.880790849211783e-38 1700951363
0.811945 -3.262121 -11.043930 1.880790849211783e-38 1700951363
0.810045 -3.170930 -11.018090 1.880790849211783e-38 1700951363
0.809786 -3.061548 -11.014559 1.880790849211783e-38 1700951363
0.816430 -2.986517 -11.104932 1.880790849211783e-38 1700951363
0.806382 -2.837354 -10.968259 1.880790849211783e-38 1700951363
0.816277 -2.740181 -11.102859 1.880790849211783e-38 1700951363
0.866405 -3.611359 -11.784686 1.880790849211783e-38 1700951363
0.874629 -2.175282 -11.896543 1.880790849211783e-38 1700951363
0.856516 -2.025167 -11.650183 1.880790849211783e-38 1700951363
0.816048 -2.616558 -11.099743 1.880790849211783e-38 1700951363
0.820886 -2.563412 -11.165545 1.880790849211783e-38 1700951363
0.854643 -1.925431 -11.624705 1.880790849211783e-38 1700951363
0.865067 -1.845209 -11.766484 1.880790849211783e-38 1700951363
0.832862 -2.491678 -11.328440 1.880790849211783e-38 1700951363
0.840018 -2.428780 -11.425781 1.880790849211783e-38 1700951363
0.877193 -1.557083 -12.444583 1.880790849211783e-38 1700951363
0.878771 -1.496016 -12.466974 1.880790849211783e-38 1700951363
0.870812 -1.857147 -12.354063 1.880790849211783e-38 1700951363
0.857253 -1.748479 -12.161702 1.880790849211783e-38 1700951363
0.868705 -1.703648 -12.324164 1.880790849211783e-38 1700951363
0.859810 -1.616213 -12.197970 1.880790849211783e-38 1700951363
0.811164 -2.315989 -11.507837 1.880790849211783e-38 1700951363
0.830624 -2.248398 -11.783922 1.880790849211783e-38 1700951363
0.794048 -3.326704 -11.265020 1.880790849211783e-38 1700951363
0.794441 -3.242897 -11.270602 1.880790849211783e-38 1700951363
0.784860 -3.094262 -11.134672 1.880790849211783e-38 1700951363
0.780348 -2.976653 -11.070660 1.880790849211783e-38 1700951363
0.760104 -2.788945 -10.783470 1.880790849211783e-38 1700951363
0.789147 -2.762444 -11.195496 1.880790849211783e-38 1700951363
0.828112 -3.599422 -11.748283 1.880790849211783e-38 1700951363
0.827595 -2.146365 -11.740949 1.880790849211783e-38 1700951363
0.828290 -2.042214 -11.750802 1.880790849211783e-38 1700951363
0.778369 -2.602520 -11.042591 1.880790849211783e-38 1700951363
0.781137 -2.543646 -11.081853 1.880790849211783e-38 1700951363
0.839080 -1.971243 -11.903878 1.880790849211783e-38 1700951363
0.829399 -1.844817 -11.766535 1.880790849211783e-38 1700951363
0.817301 -2.549733 -11.594904 1.880790849211783e-38 1700951363
0.808628 -2.438045 -11.471860 1.880790849211783e-38 1700951363
0.825787 -1.531363 -12.241572 1.880790849211783e-38 1700951363
0.837736 -1.489914 -12.418709 1.880790849211783e-38 1700951363
0.793521 -1.767966 -11.763263 1.880790849211783e-38 1700951363
0.810482 -1.726984 -12.014692 1.880790849211783e-38 1700951363
0.800486 -1.640041 -11.866502 1.880790849211783e-38 1700951363
0.823447 -1.617057 -12.206877 1.880790849211783e-38 1700951363
0.750710 -2.239205 -11.128622 1.880790849211783e-38 1700951363
0.780135 -2.206135 -11.564825 1.880790849211783e-38 1700951363
0.776447 -3.398386 -11.510147 1.880790849211783e-38 1700951363
0.763063 -3.254059 -11.311748 1.880790849211783e-38 1700951363
0.748701 -3.083661 -11.098834 1.880790849211783e-38 1700951363
0.758518 -3.022732 -11.244374 1.880790849211783e-38 1700951363
0.743289 -2.849166 -11.018607 1.880790849211783e-38 1700951363
0.737440 -2.696843 -10.931903 1.880790849211783e-38 1700951363
0.780200 -3.675467 -11.565781 1.880790849211783e-38 1700951363
0.785816 -3.568272 -11.649037 1.880790849211783e-38 1700951363
0.790622 -2.142142 -11.720284 1.880790849211783e-38 1700951363
0.791133 -2.037803 -11.727862 1.880790849211783e-38 1700951363
0.753712 -2.632736 -11.173124 1.880790849211783e-38 1700951363
0.742608 -2.526286 -11.008512 1.880790849211783e-38 1700951363
0.788842 -1.936068 -11.693898 1.880790849211783e-38 1700951363
0.777207 -1.806011 -11.521424 1.880790849211783e-38 1700951363
0.768889 -2.505938 -11.398113 1.880790849211783e-38 1700951363
0.771601 -2.430411 -11.438318 1.880790849211783e-38 1700951363
0.782593 -1.519192 -12.146692 1.880790849211783e-38 1700951363
0.797360 -1.484482 -12.375899 1.880790849211783e-38 1700951363
0.785147 -1.389354 -12.186337 1.880790849211783e-38 1700951363
0.772035 -1.800607 -11.982826 1.880790849211783e-38 1700951363
0.754530 -1.683014 -11.711118 1.880790849211783e-38 1700951363
0.778302 -1.669228 -12.080086 1.880790849211783e-38 1700951363
0.775952 -1.595112 -12.043611 1.880790849211783e-38 1700951363
0.731715 -2.284705 -11.357011 1.880790849211783e-38 1700951363
0.744566 -2.204104 -11.556479 1.880790849211783e-38 1700951363
0.724546 -3.319658 -11.245736 1.880790849211783e-38 1700951363
0.731924 -3.267363 -11.360254 1.880790849211783e-38 1700951363
0.736460 -3.175221 -11.430655 1.880790849211783e-38 1700951363
0.717341 -2.992444 -11.133920 1.880790849211783e-38 1700951363
0.704860 -2.828329 -10.940197 1.880790849211783e-38 1700951363
0.716669 -2.743559 -11.123482 1.880790849211783e-38 1700951363
0.770489 -3.799614 -11.958820 1.880790849211783e-38 1700951363
0.754227 -3.585137 -11.706423 1.880790849211783e-38 1700951363
0.744673 -2.112084 -11.558128 1.880790849211783e-38 1700951363
0.735831 -1.984072 -11.420901 1.880790849211783e-38 1700951363
0.713047 -2.607274 -11.067266 1.880790849211783e-38 1700951363
0.722678 -2.573563 -11.216755 1.880790849211783e-38 1700951363
0.739018 -1.898682 -11.470368 1.880790849211783e-38 1700951363
0.776156 -1.887987 -12.046784 1.880790849211783e-38 1700951363
0.711316 -2.426807 -11.040389 1.880790849211783e-38 1700951363
0.739896 -2.439630 -11.483989 1.880790849211783e-38 1700951363
0.740555 -1.508189 -12.061003 1.880790849211783e-38 1700951363
0.748146 -1.461263 -12.184635 1.880790849211783e-38 1700951363
0.739583 -1.372999 -12.045173 1.880790849211783e-38 1700951363
0.710914 -1.739484 -11.578251 1.880790849211783e-38 1700951363
0.722944 -1.691755 -11.774176 1.880790849211783e-38 1700951363
0.745591 -1.677607 -12.143026 1.880790849211783e-38 1700951363
0.733188 -1.581224 -11.941019 1.880790849211783e-38 1700951363
0.689703 -2.259291 -11.232811 1.880790849211783e-38 1700951363
0.721475 -2.240636 -11.750252 1.880790849211783e-38 1700951363
0.714865 -3.436157 -11.642602 1.880790849211783e-38 1700951363
0.700282 -3.279639 -11.405102 1.880790849211783e-38 1700951363
0.677404 -3.064037 -11.032491 1.880790849211783e-38 1700951363
0.670671 -2.935157 -10.922843 1.880790849211783e-38 1700951363
0.682875 -2.874682 -11.121608 1.880790849211783e-38 1700951363
0.677259 -2.720019 -11.030137 1.880790849211783e-38 1700951363
0.725248 -3.752163 -11.811713 1.880790849211783e-38 1700951363
0.728929 -3.635051 -11.871655 1.880790849211783e-38 1700951363
0.698858 -2.079489 -11.381917 1.880790849211783e-38 1700951363
0.719300 -2.034749 -11.714833 1.880790849211783e-38 1700951363
0.661687 -2.538298 -10.776523 1.880790849211783e-38 1700951363
0.660577 -2.467939 -10.758440 1.880790849211783e-38 1700951363
0.699754 -1.886096 -11.396491 1.880790849211783e-38 1700951363
0.721009 -1.839977 -11.742671 1.880790849211783e-38 1700951363
0.699659 -2.504270 -11.394959 1.880790849211783e-38 1700951363
0.708418 -2.450556 -11.537608 1.880790849211783e-38 1700951363
0.698162 -1.495309 -11.960162 1.880790849211783e-38 1700951363
0.715406 -1.469504 -12.255564 1.880790849211783e-38 1700951363
0.705476 -1.377341 -12.085447 1.880790849211783e-38 1700951363
0.685018 -1.762713 -11.734990 1.880790849211783e-38 1700951363
0.711187 -1.750221 -12.183284 1.880790849211783e-38 1700951363
0.685701 -1.622558 -11.746689 1.880790849211783e-38 1700951363
0.694193 -1.574471 -11.892171 1.880790849211783e-38 1700951363
0.656705 -2.262332 -11.249964 1.880790849211783e-38 1700951363
0.672769 -2.197315 -11.525148 1.880790849211783e-38 1700951363
0.663654 -3.354801 -11.368999 1.880790849211783e-38 1700951363
0.666945 -3.284878 -11.425383 1.880790849211783e-38 1700951363
0.659203 -3.135752 -11.292750 1.880790849211783e-38 1700951363
0.639207 -2.941980 -10.950212 1.880790849211783e-38 1700951363
0.627972 -2.780131 -10.757748 1.880790849211783e-38 1700951363
0.646811 -2.731936 -11.080463 1.880790849211783e-38 1700951363
0.685563 -3.730084 -11.744332 1.880790849211783e-38 1700951363
0.683533 -3.584768 -11.709553 1.880790849211783e-38 1700951363
0.677574 -2.120314 -11.607465 1.880790849211783e-38 1700951363
0.664927 -1.978112 -11.390814 1.880790849211783e-38 1700951363
0.642321 -2.591302 -11.003544 1.880790849211783e-38 1700951363
0.636481 -2.500766 -10.903509 1.880790849211783e-38 1700951363
0.682906 -1.935779 -11.698811 1.880790849211783e-38 1700951363
0.684892 -1.838102 -11.732825 1.880790849211783e-38 1700951363
0.658045 -2.477003 -11.272923 1.880790849211783e-38 1700951363
0.661867 -2.407808 -11.338391 1.880790849211783e-38 1700951363
0.664342 -1.500400 -12.002944 1.880790849211783e-38 1700951363
0.677742 -1.467991 -12.245049 1.880790849211783e-38 1700951363
0.663086 -1.365118 -11.980252 1.880790849211783e-38 1700951363
0.668412 -1.292023 -12.076494 1.880790849211783e-38 1700951363
0.655842 -1.779591 -11.849386 1.880790849211783e-38 1700951363
0.652703 -1.693814 -11.792657 1.880790849211783e-38 1700951363
0.670367 -1.672704 -12.111804 1.880790849211783e-38 1700951363
0.652481 -1.560498 -11.788652 1.880790849211783e-38 1700951363
0.626081 -2.274353 -11.311679 1.880790849211783e-38 1700951363
0.634648 -2.185750 -11.466454 1.880790849211783e-38 1700951363
0.632336 -3.370658 -11.424696 1.880790849211783e-38 1700951363
0.622543 -3.233255 -11.247758 1.880790849211783e-38 1700951363
0.621576 -3.117872 -11.230284 1.880790849211783e-38 1700951363
0.606284 -2.942491 -10.953994 1.880790849211783e-38 1700951363
0.608910 -2.842622 -11.001442 1.880790849211783e-38 1700951363
0.604150 -2.690785 -10.915428 1.880790849211783e-38 1700951363
0.648906 -3.723009 -11.724066 1.880790849211783e-38 1700951363
0.635211 -3.512856 -11.476623 1.880790849211783e-38 1700951363
0.636308 -2.099674 -11.496441 1.880790849211783e-38 1700951363
0.646656 -2.028577 -11.683416 1.880790849211783e-38 1700951363
0.596512 -2.537619 -10.777431 1.880790849211783e-38 1700951363
0.614273 -2.545014 -11.098338 1.880790849211783e-38 1700951363
0.641113 -1.916332 -11.583269 1.880790849211783e-38 1700951363
0.643827 -1.822041 -11.632300 1.880790849211783e-38 1700951363
0.609408 -2.418912 -11.010435 1.880790849211783e-38 1700951363
0.619063 -2.374800 -11.184875 1.880790849211783e-38 1700951363
0.628591 -1.501483 -12.013554 1.880790849211783e-38 1700951363
0.627543 -1.437603 -11.993520 1.880790849211783e-38 1700951363
0.622508 -1.355446 -11.897306 1.880790849211783e-38 1700951363
0.631678 -1.291392 -12.072557 1.880790849211783e-38 1700951363
0.620938 -1.781990 -11.867284 1.880790849211783e-38 1700951363
0.623177 -1.710403 -11.910089 1.880790849211783e-38 1700951363
0.643673 -1.260515 -12.301790 1.880790849211783e-38 1700951363
0.619017 -1.633600 -11.830572 1.880790849211783e-38 1700951363
0.632532 -1.599981 -12.088882 1.880790849211783e-38 1700951363
0.584384 -2.245236 -11.168674 1.880790849211783e-38 1700951363
0.593116 -2.160448 -11.335564 1.880790849211783e-38 1700951363
0.599543 -3.380049 -11.458386 1.880790849211783e-38 1700951363
0.590721 -3.244811 -11.289793 1.880790849211783e-38 1700951363
0.582844 -3.092093 -11.139241 1.880790849211783e-38 1700951363
0.595148 -3.054924 -11.374394 1.880790849211783e-38 1700951363
0.573146 -2.829877 -10.953897 1.880790849211783e-38 1700951363
0.571906 -2.693987 -10.930193 1.880790849211783e-38 1700951363
0.623782 -3.785138 -11.921650 1.880790849211783e-38 1700951363
0.613588 -3.588857 -11.726824 1.880790849211783e-38 1700951363
0.593279 -2.070524 -11.338677 1.880790849211783e-38 1700951363
0.607139 -2.014386 -11.603568 1.880790849211783e-38 1700951363
0.563897 -2.537135 -10.777128 1.880790849211783e-38 1700951363
0.578523 -2.535045 -11.056661 1.880790849211783e-38 1700951363
0.594302 -1.878797 -11.358232 1.880790849211783e-38 1700951363
0.612190 -1.832365 -11.700109 1.880790849211783e-38 1700951363
0.565646 -2.374615 -10.810558 1.880790849211783e-38 1700951363
0.565069 -2.292611 -10.799534 1.880790849211783e-38 1700951363
0.583530 -1.479107 -11.836333 1.880790849211783e-38 1700951363
0.591316 -1.437471 -11.994251 1.880790849211783e-38 1700951363
0.589418 -1.361897 -11.955758 1.880790849211783e-38 1700951363
0.593633 -1.287846 -12.041255 1.880790849211783e-38 1700951363
0.566427 -1.724985 -11.489417 1.880790849211783e-38 1700951363
0.578236 -1.684130 -11.728934 1.880790849211783e-38 1700951363
0.608946 -1.265452 -12.351870 1.880790849211783e-38 1700951363
0.564333 -1.580384 -11.446940 1.880790849211783e-38 1700951363
0.569264 -1.528021 -11.546951 1.880790849211783e-38 1700951363
0.537979 -2.193373 -10.912361 1.880790849211783e-38 1700951363
0.568368 -2.196938 -11.528789 1.880790849211783e-38 1700951363
0.564985 -3.380053 -11.460153 1.880790849211783e-38 1700951363
0.563266 -3.283251 -11.425288 1.880790849211783e-38 1700951363
0.551655 -3.105644 -11.189772 1.880790849211783e-38 1700951363
0.544059 -2.963505 -11.035702 1.880790849211783e-38 1700951363
0.536878 -2.812948 -10.890037 1.880790849211783e-38 1700951363
0.539872 -2.698645 -10.950770 1.880790849211783e-38 1700951363
0.572047 -3.683532 -11.603410 1.880790849211783e-38 1700951363
0.579723 -3.598187 -11.759111 1.880790849211783e-38 1700951363
0.563785 -2.087943 -11.435822 1.880790849211783e-38 1700951363
0.566363 -1.994036 -11.488101 1.880790849211783e-38 1700951363
0.530726 -2.533950 -10.765248 1.880790849211783e-38 1700951363
0.529006 -2.459853 -10.730352 1.880790849211783e-38 1700951363
0.557688 -1.870887 -11.312144 1.880790849211783e-38 1700951363
0.574766 -1.825579 -11.658565 1.880790849211783e-38 1700951363
0.544423 -2.425316 -11.043073 1.880790849211783e-38 1700951363
0.545462 -2.348429 -11.064163 1.880790849211783e-38 1700951363
0.552400 -1.491445 -11.936794 1.880790849211783e-38 1700951363
0.549064 -1.421741 -11.864716 1.880790849211783e-38 1700951363
0.546254 -1.344417 -11.804002 1.880790849211783e-38 1700951363
0.556532 -1.286038 -12.026083 1.880790849211783e-38 1700951363
0.542883 -1.761023 -11.731142 1.880790849211783e-38 1700951363
0.550150 -1.706749 -11.888174 1.880790849211783e-38 1700951363
0.563976 -1.248376 -12.186949 1.880790849211783e-38 1700951363
0.544272 -1.623533 -11.761165 1.880790849211783e-38 1700951363
0.545640 -1.560054 -11.790717 1.880790849211783e-38 1700951363
0.501675 -2.178652 -10.840682 1.880790849211783e-38 1700951363
0.514325 -2.117597 -11.114036 1.880790849211783e-38 1700951363
0.531738 -3.388463 -11.490324 1.880790849211783e-38 1700951363
0.512703 -3.183280 -11.078997 1.880790849211783e-38 1700951363
0.519904 -3.117634 -11.234591 1.880790849211783e-38 1700951363
0.509989 -2.958953 -11.020342 1.880790849211783e-38 1700951363
0.505635 -2.821900 -10.926268 1.880790849211783e-38 1700951363
0.490673 -2.612555 -10.602955 1.880790849211783e-38 1700951363
0.539086 -3.697503 -11.649099 1.880790849211783e-38 1700951363
0.551416 -3.645530 -11.915548 1.880790849211783e-38 1700951363
0.518532 -2.045497 -11.204954 1.880790849211783e-38 1700951363
0.527879 -1.979661 -11.406931 1.880790849211783e-38 1700951363
0.506458 -2.575664 -10.944044 1.880790849211783e-38 1700951363
0.511809 -2.534981 -11.059670 1.880790849211783e-38 1700951363
0.524392 -1.873830 -11.331575 1.880790849211783e-38 1700951363
0.525173 -1.776762 -11.348448 1.880790849211783e-38 1700951363
0.501258 -2.378546 -10.831675 1.880790849211783e-38 1700951363
0.513874 -2.356607 -11.104292 1.880790849211783e-38 1700951363
0.510961 -1.475748 -11.812756 1.880790849211783e-38 1700951363
0.502690 -1.392415 -11.621550 1.880790849211783e-38 1700951363
0.505568 -1.331034 -11.688085 1.880790849211783e-38 1700951363
0.520077 -1.285589 -12.023499 1.880790849211783e-38 1700951363
0.488668 -1.695679 -11.297373 1.880790849211783e-38 1700951363
0.498022 -1.652753 -11.513631 1.880790849211783e-38 1700951363
0.514287 -1.217759 -11.889659 1.880790849211783e-38 1700951363
0.537000 -1.190255 -12.414750 1.880790849211783e-38 1700951363
0.500469 -1.596954 -11.570187 1.880790849211783e-38 1700951363
0.502205 -1.535981 -11.610343 1.880790849211783e-38 1700951363
0.468516 -2.176512 -10.831497 1.880790849211783e-38 1700951363
0.483970 -2.131549 -11.188769 1.880790849211783e-38 1700951363
0.500705 -3.413166 -11.575656 1.880790849211783e-38 1700951363
0.487739 -3.239419 -11.275907 1.880790849211783e-38 1700951363
0.481333 -3.087580 -11.127793 1.880790849211783e-38 1700951363
0.487642 -3.026560 -11.273659 1.880790849211783e-38 1700951363
0.479429 -2.862193 -11.083778 1.880790849211783e-38 1700951363
0.465025 -2.648620 -10.750773 1.880790849211783e-38 1700951363
0.495146 -3.632907 -11.447132 1.880790849211783e-38 1700951363
0.504700 -3.569317 -11.668021 1.880790849211783e-38 1700951363
0.486164 -2.051523 -11.239485 1.880790849211783e-38 1700951363
0.476493 -1.911539 -11.015894 1.880790849211783e-38 1700951363
0.450976 -2.453409 -10.425989 1.880790849211783e-38 1700951363
0.463216 -2.454262 -10.708952 1.880790849211783e-38 1700951363
0.490668 -1.875567 -11.343608 1.880790849211783e-38 1700951363
0.495241 -1.792314 -11.449325 1.880790849211783e-38 1700951363
0.475794 -2.415125 -10.999737 1.880790849211783e-38 1700951363
0.477188 -2.340942 -11.031970 1.880790849211783e-38 1700951363
0.485423 -1.507070 -12.064995 1.880790849211783e-38 1700951363
0.483509 -1.439664 -12.017420 1.880790849211783e-38 1700951363
0.465775 -1.318180 -11.576664 1.880790849211783e-38 1700951363
0.484156 -1.286496 -12.033498 1.880790849211783e-38 1700951363
0.467162 -1.742553 -11.611128 1.880790849211783e-38 1700951363
0.469960 -1.676522 -11.680680 1.880790849211783e-38 1700951363
0.488575 -1.243584 -12.143339 1.880790849211783e-38 1700951363
0.479296 -1.141979 -11.912715 1.880790849211783e-38 1700951363
0.459873 -1.577402 -11.429965 1.880790849211783e-38 1700951363
0.467405 -1.536690 -11.617161 1.880790849211783e-38 1700951363
0.436763 -2.181073 -10.855561 1.880790849211783e-38 1700951363
0.449011 -2.125798 -11.159989 1.880790849211783e-38 1700951363
0.476742 -3.493396 -11.849246 1.880790849211783e-38 1700951363
0.443154 -3.163898 -11.014416 1.880790849211783e-38 1700951363
0.456232 -3.145914 -11.339459 1.880790849211783e-38 1700951363
0.452898 -3.021598 -11.256594 1.880790849211783e-38 1700951363
0.480690 -3.920725 -11.947356 1.880790849211783e-38 1700951363
0.434846 -2.790607 -10.807922 1.880790849211783e-38 1700951363
0.443671 -2.716393 -11.027256 1.880790849211783e-38 1700951363
0.475987 -3.754088 -11.830458 1.880790849211783e-38 1700951363
0.473665 -3.600905 -11.772764 1.880790849211783e-38 1700951363
0.451957 -2.050120 -11.233212 1.880790849211783e-38 1700951363
0.447135 -1.928212 -11.113374 1.880790849211783e-38 1700951363
0.425199 -2.486548 -10.568144 1.880790849211783e-38 1700951363
0.430664 -2.452814 -10.703983 1.880790849211783e-38 1700951363
0.450884 -1.852669 -11.206533 1.880790849211783e-38 1700951363
0.457659 -1.780445 -11.374937 1.880790849211783e-38 1700951363
